# .PCD v0.7 - Point Cloud Data file format
VERSION 0.7
FIELDS x y z r g b
SIZE 4 4 4 4 4 4
TYPE F F F F F F
COUNT 1 1 1 1 1 1
WIDTH 648
HEIGHT 1
POINTS 648
DATA ascii
-0.17309719368912097 -0.07047890336161938 -0.07895885575116209 255 255 255
-0.02748062764527137 -0.07108924469983668 -0.08118840844553021 255 255 255
-0.20829710524786746 -0.09080594043754259 -0.03673843379588663 255 255 255
-0.27910229995722985 -0.07242539240585076 -0.005476064711352715 255 255 255
-0.1461933948210613 -0.08146260536926724 -0.03898404779043316 255 255 255
-0.2641617111002692 -0.07159238417836346 0.060243327086555325 255 255 255
-0.1790792901328241 -0.08152117732715443 -0.00811724694240496 255 255 255
-0.030568795428935924 -0.07174213196866396 -0.06666973195027953 255 255 255
-0.26350915552897963 -0.07720021163227282 -0.023512844303218157 255 255 255
-0.12427207294008662 -0.05482279549209321 -0.008739278401886593 255 255 255
-0.2858852423726518 -0.07254143110699673 0.05594852115816852 255 255 255
-0.06142349488591995 -0.06326446265203906 -0.09172169765646064 255 255 255
-0.1762129791136056 -0.07127975118754751 -0.04892510318337931 255 255 255
-0.245604824834039 -0.07327142508093085 -0.03948470558612469 255 255 255
-0.2808814696429697 -0.073656965951073 0.02768786445407188 255 255 255
-0.3095412310073969 -0.07349354490261836 -0.0738594065322645 255 255 255
-0.17674688367711347 -0.07077975280701837 -0.0275204853310101 255 255 255
-0.10593624672182562 -0.08299340835452002 -0.015952888922591963 255 255 255
-0.31928488819613066 -0.06864418830097033 0.014487934487338 255 255 255
-0.202721648862668 -0.058848284389365964 -0.08909485377330577 255 255 255
-0.3082250036072447 -0.07693615271882073 0.09693177133702556 255 255 255
-0.17832335142381162 -0.07468117262086767 -0.07125212440545341 255 255 255
-0.29717205097359994 -0.0737074730631148 0.019959737201993375 255 255 255
-0.19612682073124252 -0.06749646226124648 -0.02109284231355389 255 255 255
-0.17845107159398174 -0.06057009343195141 0.0019193900065205688 255 255 255
-0.27480863117592136 -0.06801846287586324 -0.03710855996061361 255 255 255
-0.19124900544765178 -0.057780143622712644 0.05273970488366351 255 255 255
-0.2660386320363668 -0.07043148073826505 0.07598706147914516 255 255 255
-0.3316758446221018 -0.06384798731457997 0.08878446281477786 255 255 255
-0.20669628247695732 -0.06336507815256837 0.03812895082839238 255 255 255
-0.10071416942305657 -0.0705127320728462 -0.05721449827911701 255 255 255
-0.31118201688847885 -0.05188392503207502 0.10762510215644912 255 255 255
-0.3103979349099789 -0.06331207617581051 -0.04356651578909525 255 255 255
-0.2712119761650517 -0.06421244552662538 -0.029695999901286352 255 255 255
-0.2105029049332059 -0.0812391919854074 -0.0037682080167871484 255 255 255
-0.30888487755753 -0.05860203884017401 -0.011355299895103907 255 255 255
-0.34235315695425195 -0.08233607146043753 -0.021197579463182913 255 255 255
-0.32717820788270324 -0.06670925785508122 0.01954154840687866 255 255 255
-0.31484202240408166 -0.08417652241982118 -0.024872494889093107 255 255 255
-0.31605662127700557 -0.07644113574785219 0.029412966262497495 255 255 255
-0.3456377590782763 -0.07459169837212508 -0.045095727445553006 255 255 255
-0.3504706579656309 -0.07518203114410732 -0.005152326113419032 255 255 255
-0.3483795590211471 -0.08314151302346415 -0.0015846751738336669 255 255 255
-0.3575111045289644 -0.10339152087906475 0.08186190545852065 255 255 255
-0.33984426466161094 -0.07701060894895558 0.06727645673281832 255 255 255
-0.3283804743560812 -0.08762894059829554 0.052047537309291264 255 255 255
-0.3528520955961105 -0.07138202658650199 0.012506676291943675 255 255 255
-0.3450312557219509 -0.06719528133467677 0.018437567740177806 255 255 255
-0.3227483161219856 -0.10436555028807422 -0.04279124920532248 255 255 255
-0.31205371358115097 -0.08307881905396877 0.014842512356382745 255 255 255
-0.3045518377916957 -0.0896504621283068 0.019760876353139296 255 255 255
-0.309637578007776 -0.1108147323209106 -0.0316945566043432 255 255 255
-0.3230594849206267 -0.0968948118455906 -0.03958066208499015 255 255 255
-0.3222811887141878 -0.0897578673770827 -0.0580244492571326 255 255 255
-0.31926770637514484 -0.0711017057949213 -0.0286788530321391 255 255 255
-0.339999183781864 -0.11288164670606674 -0.015617042262727532 255 255 255
0.15926462747368145 -0.08946656676906832 0.08862724973555758 255 255 255
0.13582670529903107 -0.08594817035303537 -0.058135888838253075 255 255 255
0.0667698579481339 -0.09474360159568991 -0.06411810225373502 255 255 255
0.06887129742880041 -0.09294804812839264 0.014771332240264364 255 255 255
0.1690490520849296 -0.08436231447744204 0.022127866121529196 255 255 255
0.13223022694618625 -0.09553329462403892 -0.028332480512628745 255 255 255
0.1374601059124019 -0.08358314769761564 0.06524792436893455 255 255 255
0.061712452495792186 -0.07686157453314915 -0.031111018752245048 255 255 255
0.04907241200838568 -0.08868194286519314 -0.07394443353328113 255 255 255
0.12603552589222616 -0.10153974864993964 -0.028103959074968446 255 255 255
0.2259286499629704 -0.08582386037534526 0.010041081174824842 255 255 255
0.14798504243778068 -0.10230789736464854 -0.03963125943134055 255 255 255
0.17625175511616248 -0.08584226262277808 -0.057599241484138426 255 255 255
0.20363938612933802 -0.10633759045288388 -0.023515435764536796 255 255 255
0.28656097727544894 -0.0882619692431535 -0.07260864264488306 255 255 255
0.27081557508975024 -0.0847072757205351 -0.06254360187859029 255 255 255
0.14187920594328574 -0.10167027413050159 0.03884580769841746 255 255 255
0.11795552926379929 -0.07417126500674945 -0.061085235163782906 255 255 255
0.20607018343406083 -0.1013673972632078 -0.014852239613544546 255 255 255
0.16928733004778954 -0.10563678637959319 -0.06967469932478029 255 255 255
0.1714722062725765 -0.10181312063452277 0.101626846570428 255 255 255
0.18412648401445714 -0.08155785017505389 -0.012434289459482637 255 255 255
0.12831900818187456 -0.10553527434559974 0.04694868890401335 255 255 255
0.0993491412316661 -0.0800458355483388 -0.02504101538081255 255 255 255
0.2244267092885375 -0.0978690388259528 -0.03773936570416436 255 255 255
0.15230119365930322 -0.10100147446470856 0.09215483780472368 255 255 255
0.19365322201232565 -0.08656057497155843 0.04689088422336296 255 255 255
0.24479465320076804 -0.10017788019008568 -0.05586112365639343 255 255 255
0.19172542196804795 -0.0923826386900556 -0.04516417222410955 255 255 255
0.16451818201948348 -0.08639357803617081 0.02458683530559924 255 255 255
0.24356232013686047 -0.10356775654695496 -0.04342267751459624 255 255 255
0.0922793660039985 -0.10453605889090993 -0.07790291524322661 255 255 255
0.22478820343151973 -0.09819938593771832 0.03448877075107676 255 255 255
0.2179485002719049 -0.0893150896110614 0.010113329814557976 255 255 255
0.11780832421452658 -0.0882700713026279 0.023990486703619928 255 255 255
0.1390206272472504 -0.10291493695876466 0.034457695695810156 255 255 255
0.09486830434143854 -0.08755992061144026 -0.009282297629523484 255 255 255
0.22349479253155033 -0.08837364185467388 0.02626936820806739 255 255 255
0.17871447707526944 -0.0879322291164965 0.035069452676196156 255 255 255
0.19367545219144203 -0.11422525982721518 0.00944022063047786 255 255 255
0.19716585197422293 -0.09007558182390545 0.027127618369178513 255 255 255
0.2557465797133433 -0.08975981892730481 -0.040211070375249944 255 255 255
0.2851921902075336 -0.09765953088292358 -0.07142670427006373 255 255 255
0.22782950566360666 -0.11659307619492179 -0.013253852698659566 255 255 255
0.15386985473473522 -0.09968711869722625 0.1058846753876777 255 255 255
0.1540355659406788 -0.09120189066119287 -0.04395181711417186 255 255 255
0.026896148816874573 -0.1044029509408625 -0.06658296979671786 255 255 255
0.05985097368299621 -0.10648536846323414 -0.07360580076991495 255 255 255
0.20616792336280867 -0.09541306604993464 -0.08060626574836749 255 255 255
0.24002495080538033 -0.0832278480669539 -0.07120023283950172 255 255 255
0.02475607205337782 -0.08911890998754948 -0.04239894609979255 255 255 255
0.13734784731720429 -0.09764754902241145 0.08322469729561921 255 255 255
0.08668448344101815 -0.10275796469437345 -0.055081083114986606 255 255 255
0.06259679642975266 -0.10925337136461592 -0.05021754398439301 255 255 255
0.2750927401916818 -0.09871933178665124 -0.04795253919016648 255 255 255
0.02396578082952415 -0.10657944576777119 -0.03872742922737342 255 255 255
0.24581611974359255 -0.09907327583886245 -0.04260972563272255 255 255 255
0.23156518064569728 -0.1051942530436057 -0.053149775689938214 255 255 255
0.15243850208165088 -0.10186243857347908 -0.0366998665444953 255 255 255
0.22397418175639427 -0.10100305826428732 0.024183854537836634 255 255 255
0.15701190509957605 -0.09816340292671447 0.10671315169114148 255 255 255
0.1408718797040553 -0.08621453280778316 0.020825494868023476 255 255 255
0.18337138347438778 -0.06967301044336958 -0.07649424310734902 255 255 255
0.25395246120134773 -0.09635215262622307 0.005263382708087952 255 255 255
0.16575620765468604 -0.09297238188957324 0.07089349768780095 255 255 255
0.0935130859496649 -0.10719434039566808 -0.018734340736397275 255 255 255
0.0013419614358914566 -0.09567003152407748 -0.0753926872076015 255 255 255
0.12447640936898029 -0.11020664959458 -0.05203334111933207 255 255 255
0.06217264491576623 -0.09247479395154158 -0.02803195424826408 255 255 255
0.29640675618094153 -0.09075063034867602 -0.08867003415187763 255 255 255
0.2027510889194919 -0.08800695151525798 0.007991670273541538 255 255 255
0.2485945595831926 -0.0874995074382738 -0.0678231423923998 255 255 255
0.1802105242640713 -0.08956146243094576 -0.03132828306775433 255 255 255
0.11378131045760918 -0.0817704516883784 -0.07751671337766788 255 255 255
0.05039253061996721 -0.08814116525906013 -0.07879864524215278 255 255 255
0.18822935093461285 -0.09715609265765314 0.020071801947865425 255 255 255
0.22117003279068906 -0.09235117611544442 0.042425315465716124 255 255 255
0.2318522835257557 -0.09802781928471352 -0.0520449266239633 255 255 255
0.2854274957325449 -0.08085855398558858 -0.0800935943578298 255 255 255
0.17003704845491718 -0.0998666247508362 0.05730187872995242 255 255 255
0.16682257622769225 -0.08899930454101701 -0.008783586484600283 255 255 255
0.02738959889914024 -0.07974095433271289 -0.07960816090108662 255 255 255
0.2144392308216434 -0.089920202284791 0.007487102569535683 255 255 255
0.23483728283593758 -0.0884595803110522 -0.015078830748754875 255 255 255
0.10284081770388367 -0.09998398631017474 -0.0007843118247670666 255 255 255
0.10623371092499911 -0.09102078944171609 -0.03101980572958662 255 255 255
0.09967597388799668 -0.09566753833722347 0.01801434487427398 255 255 255
0.15310790196466936 -0.10584601461939246 0.01654826162421836 255 255 255
0.17681244433498408 -0.07993809610007115 -0.02016608742339041 255 255 255
0.07477636907738748 -0.0792689261941296 -0.029174057336895078 255 255 255
0.16176181531159767 -0.08638343380818421 0.06262150068989653 255 255 255
0.10298131451621215 -0.0805052717522337 0.037976418930987965 255 255 255
0.12224852573575615 -0.08945706624284802 -0.01828679816653119 255 255 255
0.04021789109900007 -0.10321804040767321 -0.008478303719960015 255 255 255
0.1427555007626098 -0.0926224878561105 -0.008647317563544577 255 255 255
0.22332503998420272 -0.09697835015742177 -0.0591001404568683 255 255 255
0.1927563747369636 -0.08688605206035621 0.0465206437087255 255 255 255
0.1671528613030037 -0.09236059377047769 -0.001335177815372902 255 255 255
0.19639554610814774 -0.10017316146142882 -0.0018323830411221612 255 255 255
0.2779757237479216 -0.09874472403993152 -0.04584943994298911 255 255 255
0.17180007617928023 -0.09358610643828617 0.023961157535565852 255 255 255
0.07052413862500939 -0.09158052338296309 -0.04697339053458744 255 255 255
0.07150890441982694 -0.0940661685340191 -0.023596528773693323 255 255 255
0.19049932901563177 -0.07837171170837134 -0.06608915111483693 255 255 255
0.14990263037175736 -0.09132057548831839 0.00801162329041473 255 255 255
0.059514914017445526 -0.0901134894301329 -0.014141922121735097 255 255 255
0.19330666844155664 -0.0954435285488719 0.07240233558492219 255 255 255
0.10075867709072536 -0.09027537435370245 -0.06528042322378609 255 255 255
0.2025195196263517 -0.0852799835698274 0.025625658620107773 255 255 255
0.03626737698003269 -0.08374687191887127 -0.07911057278377101 255 255 255
0.2636114532785866 -0.0959627966040024 -0.033777792577033325 255 255 255
0.19254596155476164 -0.09713949058679922 -0.018808791429045277 255 255 255
0.2377890416806402 -0.09980318819206895 -0.0675969076043535 255 255 255
0.2291734074670431 -0.08576115036329282 -0.0037734049664063223 255 255 255
0.27151634537184155 -0.09957694967034014 -0.04325415987094221 255 255 255
0.06361876926349584 -0.10460981224662354 -0.01201952737858326 255 255 255
0.2540934032615586 -0.09970355754932238 -0.07037049699301844 255 255 255
0.1430312346764136 -0.09073314938681794 0.05983725115203532 255 255 255
0.10675664602599595 -0.08754992426428905 0.006157519466148404 255 255 255
0.19479783451389057 -0.09195840299844298 0.02833056184263543 255 255 255
0.03732277669637133 -0.09689328853202622 -0.053636113941589625 255 255 255
0.12551431310487812 -0.09600571753192914 -0.06239629499596629 255 255 255
0.09954217163406154 -0.09106906565070297 0.02871839842296424 255 255 255
0.11807908050203544 -0.08398117474407697 0.049344255273580044 255 255 255
0.23144842642356067 -0.10658959365017706 -0.023309861433883913 255 255 255
0.23698819011949074 -0.10306521620435344 -0.024645136513734917 255 255 255
0.12930576906632837 -0.0942600267021007 0.03110018004687738 255 255 255
0.2670747361890994 -0.07851847053976876 -0.04566135678178855 255 255 255
0.11908693361488379 -0.09618054722226127 0.07507280578175471 255 255 255
0.12084061405690638 -0.09243415612519687 -0.020267706994234046 255 255 255
0.14956836827444092 -0.0827123541905679 0.06895952121968349 255 255 255
0.18014915461255118 -0.09821122714758909 -0.021415748039922338 255 255 255
0.1911093203101386 -0.10179310708601805 -0.04093955758672645 255 255 255
0.10664294835640864 -0.09659182057267966 -0.004425525890897983 255 255 255
0.16744088791049877 -0.09183704017325994 0.00036299348071232307 255 255 255
0.04385898805206745 -0.11061974725935002 -0.07400564332606949 255 255 255
0.16895700240056744 -0.09489316346141527 -0.0060376784396516045 255 255 255
0.1598265958750981 -0.10159384800172876 0.07178056013847746 255 255 255
0.18267779601123232 -0.0811997596717607 0.08515586223832305 255 255 255
0.11108498169277681 -0.10275494604349894 -0.003325902440729147 255 255 255
0.2205572144286553 -0.09783435623572301 0.020180227705962832 255 255 255
0.03601952542041545 -0.09956611468474452 -0.06385331532258053 255 255 255
0.14886320373228407 -0.09468897451038899 -0.028388348882113758 255 255 255
0.15157652584267634 -0.0918955746510217 0.01934437378642796 255 255 255
0.15765300605544372 -0.10049436293448373 -0.05623083910246784 255 255 255
0.1889377104072767 -0.08809536382869973 0.0922660367478771 255 255 255
0.26509965938344 -0.10014989764711676 -0.0161059553473478 255 255 255
0.12644884077307936 -0.0759300191122171 0.020307918249931688 255 255 255
0.08362890984109166 -0.09802181272702466 0.02960956876157792 255 255 255
0.12779054534007328 -0.10569968731836707 0.0028063203564338522 255 255 255
0.22856857191110086 -0.09853169487599865 -0.08218929924418962 255 255 255
0.19016838625784752 -0.10069797767936708 0.032992358926358795 255 255 255
0.17247525921682355 -0.08890137106064885 -0.061253330990217306 255 255 255
0.276734591266857 -0.09163075239700741 -0.06401811443643274 255 255 255
0.16726770439363772 -0.09177259446794153 0.03993440338764616 255 255 255
0.222955077308532 -0.08533974744819811 -0.03047453032574928 255 255 255
0.19620797478758015 -0.10344373947556157 0.02732725107309419 255 255 255
0.19224305209474524 -0.10176514140918713 0.07779372764038013 255 255 255
0.12767710507462998 -0.0983102317721787 -0.04162667165571868 255 255 255
0.1894291477100176 -0.1004752315321006 0.052292078299884366 255 255 255
0.07045328265634489 -0.10639156763443064 -0.034383345103221316 255 255 255
0.2466304164580084 -0.07552228252430725 -0.010099185044218601 255 255 255
0.05481410978115565 -0.10172421937599788 -0.051979992357867856 255 255 255
0.24760291512233015 -0.0813141980001511 -0.04080546454679715 255 255 255
0.09820584344723587 -0.09127768453773091 -0.04903908012048298 255 255 255
0.07589126541470223 -0.07692220288361991 -0.023405979401974038 255 255 255
0.1495260357871106 -0.10359207228351457 -0.017173823680304057 255 255 255
0.1997168169395678 -0.09827009382714902 0.008015211260881915 255 255 255
0.23868627052439323 -0.09944473452280753 0.021380608922127307 255 255 255
0.07376094405228029 -0.09812543651501719 -0.07214688574183833 255 255 255
0.16685324282984823 -0.09434658141706996 0.01545430795195838 255 255 255
0.21860110751625683 -0.09656957665085293 -0.015304657180573137 255 255 255
0.29492448711773667 -0.10082900899705617 -0.07564705819847421 255 255 255
0.009835716812432182 -0.07260877566631282 -0.03671764851435718 255 255 255
0.19357935164815734 -0.10559849428165424 0.03277471918466741 255 255 255
0.16087161567556632 -0.0823818643404042 -0.0759346840392121 255 255 255
0.14493164487434015 -0.08688484635678584 -0.07193003885433709 255 255 255
0.23167283595769403 -0.09302814028313376 -0.011573469042144985 255 255 255
0.09124756878339785 -0.09972207485597372 -0.03212881633128416 255 255 255
0.09725221144424241 -0.09884176498242943 -0.0646876921529899 255 255 255
0.06431116925315387 -0.09656520227211313 -0.05716074752704687 255 255 255
0.05185770586223981 -0.09049326011342317 -0.06569708600239141 255 255 255
0.181773039576496 -0.07691298624297456 -0.03669723982752273 255 255 255
0.1537211523198192 -0.09385626992458394 -0.0560756626807254 255 255 255
0.17929510544133043 -0.11324132247845986 -0.09749692272354607 255 255 255
0.06715483260366283 -0.08053676393030497 -0.0926604406955109 255 255 255
0.2507396845127954 -0.07349361941574756 -0.04133865169784668 255 255 255
0.17980619814340573 -0.09011914083213834 0.0981696445400091 255 255 255
0.11700204429529136 -0.09414315546360855 0.0027842411920825814 255 255 255
0.19432970408198114 -0.09229911620091845 0.05169311881420084 255 255 255
0.176500837957361 -0.09244156118440343 -0.014418006698722164 255 255 255
0.27371101268892417 -0.09349733670846595 -0.05422469334456545 255 255 255
0.1318171383771374 -0.10565865688337664 0.05695311976910419 255 255 255
0.022723408483848177 -0.10233079132510021 -0.0716585824409272 255 255 255
0.1785317686841485 -0.09111798028874633 0.08254531450647136 255 255 255
0.23399585974036474 -0.09009670634963397 0.048548930716171945 255 255 255
0.16489870747442975 -0.09118615684208593 0.04710199105904138 255 255 255
0.09337152180300042 -0.08847953765995743 -0.08864414575332438 255 255 255
0.22996579765626188 -0.08697999442152138 -0.03802705832824155 255 255 255
0.10089049688227326 -0.09351737919546976 -0.03924942842273069 255 255 255
0.11039881011041254 -0.09932640195290379 -0.03759697513894816 255 255 255
0.16367079423563113 -0.09423741101860353 0.08329988161797587 255 255 255
0.12783794568432316 -0.1014107277870673 0.04379999231592556 255 255 255
0.058488156771263115 -0.09241221432414752 -0.023697989278933004 255 255 255
0.16381346579078493 -0.08621562294571825 -0.009007944683623557 255 255 255
0.23884916385200067 -0.09972266707076348 -0.001334552227619151 255 255 255
0.20059646661037547 -0.08521612615154495 -0.08509054057719692 255 255 255
0.14457435441978708 -0.08211472944506461 0.023927519313946526 255 255 255
0.2448830586417398 -0.10148049436779939 -0.025148481368287845 255 255 255
0.09866029042567631 -0.08960232746035379 -0.04066463725606655 255 255 255
0.08075501690367012 -0.09385926584851466 -0.07352162698627837 255 255 255
0.15820905839431065 -0.08582753622087191 -0.06315939366429016 255 255 255
0.10666576608323182 -0.10810523800983116 0.036455801458298666 255 255 255
0.16511898265998298 -0.09833350755233174 -0.011626828272568022 255 255 255
0.17603072032126194 -0.10117146230021072 -0.02271483762167533 255 255 255
0.1947554457177414 -0.0919953454866559 -0.05568644534672105 255 255 255
0.20287240289345027 -0.11594735755772244 -0.04405075040465411 255 255 255
0.14192139554327177 -0.10059113080073545 -0.024187726791203498 255 255 255
0.19853931592643156 -0.08676730151121619 0.06876198275975401 255 255 255
0.050794973875322634 -0.09411081665367424 -0.08636120370967108 255 255 255
0.2172162440324108 -0.10497336757531092 -0.03010357855562753 255 255 255
0.04678480195762259 -0.06893477343882175 -0.06112283433288242 255 255 255
0.032638135808441854 -0.0941089946983699 -0.07518239448265152 255 255 255
0.20332034679349212 -0.09318734268026475 0.029615544521956326 255 255 255
0.2294480835210993 -0.08375659536745289 -0.05903321497982159 255 255 255
0.2773414524387176 -0.10454464815378316 -0.08275165641219209 255 255 255
0.2541090455289563 -0.0863830701042579 -0.04735495889278132 255 255 255
0.13285731649607754 -0.09157220258073316 -0.04498449834061758 255 255 255
0.11916797922288899 -0.09299785279561248 -0.07537878705855 255 255 255
0.05951905465983451 -0.09237077910629905 -0.0518807073525972 255 255 255
0.282073703459703 -0.0913495166056355 -0.06871056826285724 255 255 255
0.13226313835057338 -0.0991560429375007 -0.07198176336270243 255 255 255
0.1452210204690705 -0.09497323003900636 -0.0415264685352553 255 255 255
0.12696071169316744 -0.09214205753573627 0.012802961518110906 255 255 255
0.08674367729905223 -0.10655993499352329 0.015672328833105462 255 255 255
0.22186249502757976 -0.08050203285464623 -0.02375296110596286 255 255 255
0.16178422788513516 -0.07119173174098087 -0.043948013188839515 255 255 255
0.14863681968424686 -0.07805464920419758 -0.009134173869278863 255 255 255
0.023019054315146954 -0.100923842867616 -0.08815439588733327 255 255 255
0.2570701924841256 -0.08544802015204317 -0.0056188477326368225 255 255 255
0.1444733686063309 -0.08126981407618934 0.04167031381254273 255 255 255
0.2348122055824527 -0.11320123359510677 -0.03829421754372164 255 255 255
0.15917608752733886 -0.09205122193543858 0.05335411070220083 255 255 255
0.07360725054992176 -0.09821399763488657 -0.029672704688528 255 255 255
0.12786377615113192 -0.07453897875549818 -0.07642826209595602 255 255 255
0.10466138484303919 -0.09635541085173571 -0.030336265393667426 255 255 255
0.20780608426945615 -0.09328557981331653 0.006175046904383797 255 255 255
0.07889716413968599 -0.08639884402732861 0.0017398274394745253 255 255 255
0.2434671743059606 -0.09430068204505464 -0.011228130387668666 255 255 255
0.17802517881246682 -0.09346343731553973 0.054776164317548476 255 255 255
0.22534076987293902 -0.08293556161474669 -0.04024610860067659 255 255 255
0.22608944397126432 -0.09558444383009877 -0.024242568643559326 255 255 255
0.22040603999637315 -0.09842819019670224 0.00864776218360934 255 255 255
0.16844172851438102 -0.10486947322174818 -0.07988718720531968 255 255 255
0.0636448885762626 -0.10163605266171762 -0.036499151737811555 255 255 255
0.057651761566946194 -0.10518946041319 -0.03959877205766451 255 255 255
0.14495414552490346 -0.10194964750529766 0.08250160891097524 255 255 255
0.14430086050760718 -0.09195917981910742 -0.0770565004437496 255 255 255
0.23675078333545022 -0.09022876871020916 0.009798654901603514 255 255 255
-0.14192204288288143 -0.11140326673604523 -0.046017826331612235 255 255 255
-0.21368499091013074 -0.10369085572292984 0.012494751100902996 255 255 255
-0.27011290257586723 -0.09932233428504647 0.0013977921633744929 255 255 255
-0.22118102425963707 -0.09607631795221491 -0.015299127143754013 255 255 255
-0.3030559706306094 -0.09496753111028508 0.07309511448614137 255 255 255
-0.14722682099498763 -0.10258771101702023 -0.031247042306611295 255 255 255
-0.10501226701869483 -0.10528949006211201 -0.04425080708439935 255 255 255
-0.18930141289865995 -0.08877296016878526 0.03761543602753999 255 255 255
-0.2568103239501802 -0.08135613979566583 0.04942740070258537 255 255 255
-0.23402440305136926 -0.084666261674553 0.006297041202837442 255 255 255
-0.29280608221146914 -0.08724008364383666 -0.0649571064894241 255 255 255
-0.26983749346622177 -0.08920916591276123 0.0037819807308177647 255 255 255
-0.09074677729934053 -0.09492976924206618 -0.015881436493885993 255 255 255
-0.2947161422278793 -0.09508118369727009 0.059300987472639885 255 255 255
-0.3272553113061255 -0.10586794928227991 0.024481403237024708 255 255 255
-0.31414417631696195 -0.10225166337518887 -0.020659392130090513 255 255 255
-0.27422734599925525 -0.09954433374941368 0.06861435760307595 255 255 255
-0.33882509457858007 -0.09405669272368934 0.08669023754147405 255 255 255
-0.253831839114918 -0.10934173040022503 0.015060592940222727 255 255 255
-0.2568250458145971 -0.10210376579061217 0.0616464103474405 255 255 255
-0.1636205986755868 -0.09197882702096816 -0.03857779864065922 255 255 255
-0.30518365824109867 -0.09182369758834397 0.0232791466184379 255 255 255
-0.17495395377049885 -0.08545648845038112 0.004529974501158036 255 255 255
-0.2692192608582394 -0.09476238104356226 -0.07589619838333567 255 255 255
-0.22211059832309252 -0.09007914782531098 -0.022581565882221752 255 255 255
-0.22781445548739063 -0.09576093026920039 -0.02480151119104064 255 255 255
-0.3328223101829382 -0.0853296183854817 0.08431953738114001 255 255 255
-0.0901561133604175 -0.08820855744391483 -0.0359279034152897 255 255 255
-0.23107459927630677 -0.09743309384083149 -0.06289495074515984 255 255 255
-0.2149780433213584 -0.09410702450690779 0.0323959095332548 255 255 255
-0.19905361534784638 -0.09350894933751923 -0.002712517552305475 255 255 255
-0.25218861522081487 -0.09185555575420601 0.031175657767506387 255 255 255
-0.06690688892789533 -0.10104649135800514 -0.059411183491445495 255 255 255
-0.27859231919959393 -0.09103678470394061 0.0026463963833166415 255 255 255
-0.2341499888006754 -0.10506339344542948 0.04205604383766117 255 255 255
-0.16589257040469702 -0.10744056321251148 -0.04706656209390612 255 255 255
-0.31044578022894614 -0.1003755881967117 -0.06123668808937251 255 255 255
-0.07233117918513901 -0.10178349160148625 -0.04914102674577554 255 255 255
-0.17461901771298233 -0.10659181906039576 -0.04611838518087737 255 255 255
-0.3077320864863178 -0.11125984269789409 0.06011224636865693 255 255 255
-0.25695313347766696 -0.10811930755339971 0.05607469721072066 255 255 255
-0.22154972261041697 -0.07954962333228138 0.04473474711637143 255 255 255
-0.32768076815766084 -0.10251645154143396 0.0054358248727928195 255 255 255
-0.3103022801937714 -0.0846679004830233 0.06852216253055811 255 255 255
-0.26480601994391034 -0.08388247184882082 -0.05073258971597854 255 255 255
-0.14517750237179253 -0.09895422710007279 -0.032314341341647124 255 255 255
-0.2146298445882999 -0.08486246963342636 -0.059355033562060525 255 255 255
-0.19325449653615634 -0.08220522379739842 0.025342138029475464 255 255 255
-0.27707007447933896 -0.09889177969127164 -0.021328096432589656 255 255 255
-0.2673157585864259 -0.09217092134464312 -0.001052789034854184 255 255 255
-0.2654317277033505 -0.10868224708806234 0.06986040409264421 255 255 255
-0.31744897034113617 -0.08267794385290668 0.06569448211492357 255 255 255
-0.2937191365154246 -0.10222425020637127 -0.04921090094676996 255 255 255
-0.20196924631553803 -0.11765308238286117 -0.007964255260829452 255 255 255
-0.17143713195798466 -0.10409880428150575 -0.025122927727262934 255 255 255
-0.22409587173704332 -0.10248464781362976 -0.035826097740272206 255 255 255
-0.2631504178461139 -0.09923468487313278 -0.07196193925247595 255 255 255
-0.2780943982432651 -0.09349922780191708 -0.05127252675077408 255 255 255
-0.09570495368079908 -0.08107121850286611 -0.02637026722394046 255 255 255
-0.15798163347939984 -0.08661086231387839 -0.01393839425414022 255 255 255
-0.2751977224342051 -0.0974096270570241 -0.035541786959698854 255 255 255
-0.18875209060301223 -0.09503103603500815 -0.031072506809241358 255 255 255
-0.05699203962320921 -0.09913888476788606 -0.06141522656801871 255 255 255
-0.25299925371043713 -0.10038403508347578 -0.003783614144298822 255 255 255
-0.16110215488862206 -0.08526640125997698 -0.06860875208348266 255 255 255
-0.2948725409773965 -0.10240642846345566 0.04223770619421858 255 255 255
-0.2571546891583786 -0.0881151040205306 -0.01585307492034637 255 255 255
-0.30143688965464127 -0.08555164232241297 0.03845099688824627 255 255 255
-0.32813522882738655 -0.09272498637386538 -0.03130161354654959 255 255 255
-0.1877476750563197 -0.089804835512126 -0.015985503542164204 255 255 255
-0.1600436016951646 -0.1084151878651177 -0.07222395391961983 255 255 255
-0.17128187954777233 -0.08557122920215457 -0.058118463999128823 255 255 255
-0.02509631130516845 -0.08898216536359363 -0.08052989667974553 255 255 255
-0.2307296403758075 -0.0991496188025158 0.05291600765624975 255 255 255
-0.18867220006929067 -0.0839890122907666 0.00903756309999961 255 255 255
-0.2484151629736955 -0.09633228407474921 -0.04405803098558963 255 255 255
-0.30089445070775855 -0.11511486579472811 -0.06458365582540551 255 255 255
-0.03887053026824726 -0.09660161011175404 -0.07500031801347658 255 255 255
-0.06811248328835559 -0.08146218656838729 -0.05622839015158399 255 255 255
-0.2854422071825767 -0.082303485243243 -0.01181460625890595 255 255 255
-0.3068600717017614 -0.09121498237559814 -0.036632262905116876 255 255 255
-0.3132990659693859 -0.09687068802819962 0.024377968923757952 255 255 255
-0.12230187550914662 -0.09566716907447764 -0.06413644518229299 255 255 255
-0.3250381886761182 -0.08934290146111379 0.09628425187535315 255 255 255
-0.13184578635542044 -0.08661564114040637 -0.008186214796358495 255 255 255
-0.12273285513508987 -0.09433344808836883 -0.03321633027025572 255 255 255
-0.09000567678862055 -0.087933022762703 -0.06609940699885995 255 255 255
-0.3137737571710846 -0.10030859476594227 -0.06430265397532425 255 255 255
-0.1291792049712809 -0.08717067367848345 -0.01995575594014261 255 255 255
-0.1576122878441453 -0.11474724808263831 -0.02349254560632803 255 255 255
-0.1597086834369968 -0.09567830779149751 -0.00945716623924491 255 255 255
-0.3250446082686416 -0.0815672930449727 0.12699911873377165 255 255 255
-0.2440459346577262 -0.07911952525144238 -0.029557793225001544 255 255 255
-0.2028483863256085 -0.10575807608267712 0.03307553098440277 255 255 255
-0.26043488694746064 -0.09459337987683919 0.0009198735642590682 255 255 255
-0.289669420509024 -0.09594691212376497 -0.05857571471636629 255 255 255
-0.32475766139662554 -0.09369041756282649 0.04868580452694858 255 255 255
-0.22567981543295132 -0.09217530415915541 0.04543923397285633 255 255 255
-0.23256114294971356 -0.10669633452215668 -0.0061722802618803425 255 255 255
-0.13543845611361957 -0.09147021683333248 -0.03252992117489374 255 255 255
-0.17305777475906275 -0.10264060713404918 -0.01658095204711096 255 255 255
-0.154254812238008 -0.10939704936016878 -0.08165538101084646 255 255 255
-0.2129892086815076 -0.08314861278225527 -0.006206787567706354 255 255 255
-0.3137819567971822 -0.10356880402498578 0.06802994478434847 255 255 255
-0.15750852968419177 -0.10199258815446036 -0.0696314048169304 255 255 255
-0.15356647564723172 -0.08935918310329513 -0.01775385271573976 255 255 255
-0.22657991419482648 -0.08490363012770852 0.018994857837768643 255 255 255
-0.29796930330855886 -0.08752282894778357 0.08474784561718222 255 255 255
-0.31716468763575784 -0.06532720733267704 0.08677041241250111 255 255 255
-0.29118121261731034 -0.10923614543854049 0.1095830057172925 255 255 255
-0.3018381900672402 -0.10340335806881865 -0.056515269252791905 255 255 255
-0.25231198639078073 -0.09859439673792929 0.024131460223990236 255 255 255
-0.19704518353606376 -0.10648851333953702 -0.05186331034022203 255 255 255
-0.2873161877212108 -0.1042619874021766 0.06692972814365158 255 255 255
-0.16166004739538936 -0.08792346348748963 -0.012110958701580719 255 255 255
-0.2877456614322469 -0.11672854623849675 -0.007506127478626862 255 255 255
-0.23023218230423478 -0.08996281138225792 0.029834800876267775 255 255 255
-0.33904202783322696 -0.08360073774414874 0.029652854143531488 255 255 255
-0.07091344290351324 -0.10386953616070248 -0.08031275640149316 255 255 255
-0.329552466357435 -0.0907228065161626 0.1138228537731695 255 255 255
-0.2214969937540107 -0.0913497242785248 0.06684589571001823 255 255 255
-0.3285241103024716 -0.09851144291416461 0.07554743420204452 255 255 255
-0.15293000205717436 -0.08421711549774025 -0.0428911010556833 255 255 255
-0.3346969111113994 -0.10116856987507669 -0.009450454000690466 255 255 255
-0.2720385174469583 -0.08593095181451371 -0.04191609694700324 255 255 255
-0.3099366722582766 -0.10377447045385294 0.0020591270324523247 255 255 255
-0.30685816313857733 -0.10906380487178076 0.04293821562810302 255 255 255
-0.014164979034615072 -0.09682666727497906 -0.08121890430582648 255 255 255
-0.14181591299475924 -0.08334318484600314 -0.07438222964011719 255 255 255
-0.28286896130777606 -0.10104122623102607 0.08432949449822469 255 255 255
-0.12621182030500042 -0.09484210355723127 -0.0036127918111971778 255 255 255
-0.26619146644818326 -0.09200996238395452 0.0035789773582603386 255 255 255
-0.2424375315125586 -0.07843117907874722 0.048443598294604186 255 255 255
-0.21606763926104205 -0.09158933976934831 0.025330397595148584 255 255 255
-0.27351440628701124 -0.0980601058642372 -0.06647136713656795 255 255 255
-0.27360899885498785 -0.09061210250817806 0.03532066217810935 255 255 255
-0.1542335951604192 -0.10295662158006041 -0.041438736456554666 255 255 255
-0.3216810139583255 -0.07456685739841473 0.09593526440038891 255 255 255
-0.29192565306429724 -0.08448845902783722 0.058229638760402075 255 255 255
-0.06279835318595313 -0.09046939116454897 -0.08688017841109107 255 255 255
-0.24699849883247962 -0.07359007617244806 0.05091716217744408 255 255 255
-0.26974350270576314 -0.08225080133085026 -0.08895858865441306 255 255 255
-0.30059094352899446 -0.07515100461522597 0.07633272924972972 255 255 255
-0.23770581564424062 -0.08474696331474664 0.027339070894895085 255 255 255
-0.1802292308667917 -0.08276296951760864 -0.0611428127286769 255 255 255
-0.2753648620828291 -0.11373644557303242 0.03709787604033333 255 255 255
-0.08509574919492362 -0.09714327809812263 -0.034663473752385744 255 255 255
-0.10085849598954592 -0.10268839436848363 -0.03912338542128986 255 255 255
-0.1468649793716224 -0.0967639499066819 -0.02088652120877825 255 255 255
-0.28231136228192427 -0.08520542131140371 0.06787386707234874 255 255 255
-0.1908921448320327 -0.10183440121452055 -0.03231272159248986 255 255 255
-0.21124409584957315 -0.0926531233915436 0.027363504597680964 255 255 255
-0.26074066554343955 -0.10547803762322432 -0.0001839689174621931 255 255 255
-0.13650112816094492 -0.10123848604352614 -0.013061262507735066 255 255 255
-0.27901921580870725 -0.07429499840722688 0.06672100956917087 255 255 255
-0.23231659446827718 -0.10725724408426167 0.025769560087965722 255 255 255
-0.3372215253346279 -0.07841263270128519 0.11642871231536081 255 255 255
-0.2643180615290357 -0.08968462873969013 -0.01927869850442889 255 255 255
-0.3026501442406342 -0.109522158305929 -0.0038400312864381213 255 255 255
-0.15514947557123063 -0.09550986722275384 -0.03306470050423729 255 255 255
-0.1259245379582675 -0.0990780410806466 -0.03520483486643878 255 255 255
-0.2184472816138179 -0.11564155637320951 0.01271971838419309 255 255 255
-0.10431004286288424 -0.0990419008285781 -0.060662611720581454 255 255 255
-0.16875176678692685 -0.103898014974726 -0.07902563313661536 255 255 255
-0.2965190546407189 -0.08979943739727354 -0.02905077474326325 255 255 255
-0.14543489908656065 -0.10594217491920156 0.006594799892253207 255 255 255
-0.2624698321221482 -0.09474007808862826 0.023897887174969382 255 255 255
-0.3176051090959809 -0.09418232159469472 0.03625394327018938 255 255 255
-0.1596900658216362 -0.09677080326265203 -0.02928860560959606 255 255 255
-0.26747101004230683 -0.08733773783982975 -0.03205743230885824 255 255 255
-0.2998559211059512 -0.09634744127600778 -0.032231861327427724 255 255 255
-0.2540930528727435 -0.09986003756652106 -0.03718158702997953 255 255 255
-0.27976197497057953 -0.10461121880447544 0.06836247301584893 255 255 255
-0.3095226268335077 -0.10906142158170559 0.052800395300512504 255 255 255
-0.25258415619057517 -0.09805109181715109 -0.08637217628758861 255 255 255
-0.23661559996777215 -0.09002276568868915 0.03531945789351862 255 255 255
-0.2642483490420474 -0.10100273452338178 0.026927034487038162 255 255 255
-0.05971678721403419 -0.0995744518623086 -0.05890749217689251 255 255 255
-0.17749806654813993 -0.0977111173093926 0.0037369741376858667 255 255 255
-0.18574835686966815 -0.09954351401138495 -0.025883236645541794 255 255 255
-0.09315872627762702 -0.07101767542618051 -0.025028618862920543 255 255 255
-0.207424640925576 -0.09335802654649837 -0.018089155633267334 255 255 255
-0.20744789874153727 -0.0943774802742694 -0.009058887573746705 255 255 255
-0.2223755881809247 -0.10039262941657054 -0.0686346733255993 255 255 255
-0.15185596888559508 -0.09469217828305741 -0.05855837240212164 255 255 255
-0.11801273823327918 -0.09835506234916372 -0.04194051378965539 255 255 255
-0.14100889350805035 -0.10044329539489623 0.009758476404761018 255 255 255
-0.2749558832482753 -0.08841133769285953 0.0070111617429032165 255 255 255
-0.2878890475708652 -0.08702375258074754 0.09017826910016807 255 255 255
-0.16641291402719366 -0.09904413021121805 -0.0674970574078135 255 255 255
-0.2597976754356766 -0.11289842799932653 0.04293739570517473 255 255 255
-0.2825849508556473 -0.11054855658067332 0.07192668619666294 255 255 255
-0.26975723308495586 -0.08961300052958346 0.02933789258902272 255 255 255
-0.1812417437878818 -0.1007855484360852 -0.03612506493882938 255 255 255
-0.23101438919549852 -0.1083664325528273 0.06186923657420859 255 255 255
-0.041270402226414926 -0.09545572590231155 -0.07683881269670712 255 255 255
-0.11128319238962592 -0.09143791373198418 -0.05760410312335287 255 255 255
-0.293155026030033 -0.0920221510588319 0.04876774224160957 255 255 255
-0.18215265619457122 -0.08684112087613799 0.0009034015290323352 255 255 255
-0.11229009114180889 -0.09481554350431409 -0.049441601235210325 255 255 255
-0.24877331243483453 -0.09245436417688772 0.04085280842391709 255 255 255
-0.2628446711670657 -0.08529088898866881 -0.04535554130814818 255 255 255
-0.33937059977607836 -0.09688548666945215 0.11503941619880206 255 255 255
-0.3091496865576791 -0.08334103627913667 0.044293402986757574 255 255 255
-0.11627501809636627 -0.09552426481797642 -0.029166622085105273 255 255 255
-0.09962092836265762 -0.10127155044707635 -0.033490109749481294 255 255 255
-0.12749151097270378 -0.0872110122455289 -0.09011231772264314 255 255 255
-0.30862865133822504 -0.09422187272538167 0.027927016859113002 255 255 255
-0.1631495896265488 -0.09366353169681049 -0.053538235863156654 255 255 255
-0.2648067810739461 -0.10069119720873107 0.0767625131295305 255 255 255
-0.15119122353200365 -0.08598840322169074 -0.053201729014090496 255 255 255
-0.0985786346592324 -0.09185222766383346 -0.03979092186548809 255 255 255
-0.30193217137262024 -0.10515730234775164 0.04935995354314595 255 255 255
-0.29566379810203774 -0.09885680281033829 0.0018899028210411246 255 255 255
-0.2205870037254388 -0.10322834126245103 0.04456850627867405 255 255 255
-0.16612849908718197 -0.10168646596490795 -0.039020332396577276 255 255 255
-0.24104571062634533 -0.08780981034061588 -0.025722745850205363 255 255 255
-0.08741662304405046 -0.0995275312972066 -0.061849445574419806 255 255 255
-0.25204061795728705 -0.07563767642643926 -0.04426221134696102 255 255 255
-0.17894245723908936 -0.09132640647921869 -0.042716152218030885 255 255 255
-0.307354620534189 -0.09706716702864443 -0.07668817257846788 255 255 255
-0.2483896996378579 -0.09124023530804666 0.062454217355656386 255 255 255
-0.14460012821536047 -0.09162557689221734 -0.030969793159531876 255 255 255
-0.2187519061574554 -0.10443710720088827 -0.014455942850641498 255 255 255
-0.24667295997213073 -0.09269040058121858 -0.014785171708058015 255 255 255
-0.24889908676162464 -0.0875453442695176 0.022240472793600016 255 255 255
-0.15130050149786162 -0.08016815060506219 -0.009120847316057917 255 255 255
-0.3006315649485126 -0.07028511298227227 -0.0532598174581746 255 255 255
-0.23982382712201653 -0.09295520818958349 -0.021059121922964733 255 255 255
-0.3129089810662179 -0.09392585293618279 0.1123013714008645 255 255 255
-0.17179287458614112 -0.10447883628114885 -0.07766746401725305 255 255 255
-0.18232305243420774 -0.0823555456374684 -0.06451716359786507 255 255 255
-0.21679640680139664 -0.09323987606763118 -0.07238642744372573 255 255 255
-0.1779221579626887 -0.08320944867082518 -0.016787969507492354 255 255 255
-0.3149627934107746 -0.08884394714593448 0.0749968780846006 255 255 255
-0.174122873553152 -0.09038424701250211 -0.06942986989185831 255 255 255
-0.26191171108246186 -0.09493556066486322 -0.01533933770889987 255 255 255
-0.23292386986797806 -0.09401860003466563 0.013446880004318654 255 255 255
-0.3248616668764904 -0.08723995139746513 0.06821697144292205 255 255 255
-0.2720322474349711 -0.08422864463221488 0.029033300519382632 255 255 255
-0.3039494474872273 -0.09582371495068394 -0.07269205894675673 255 255 255
-0.09828755218546982 -0.1093187626163376 -0.05697056466144885 255 255 255
-0.15179557648964867 -0.09260386337101002 -0.04349157227437543 255 255 255
-0.31207299493561513 -0.09160658849004355 -0.059670033148810926 255 255 255
-0.08022766800673611 -0.09657238735714391 -0.04151324874680549 255 255 255
-0.28828209338406535 -0.07350271579815146 0.07563072655239295 255 255 255
-0.19248541975376524 -0.10352799585711542 0.04282612987332142 255 255 255
-0.05709486780119546 -0.0961418318488557 -0.08030886664157387 255 255 255
-0.1917775997789451 -0.10226638567790981 -0.028484531022364742 255 255 255
-0.20570435422528652 -0.08720610172263941 -0.039412176122292 255 255 255
-0.2352939058270273 -0.08241841916718531 -0.06253312700616266 255 255 255
-0.19876474431893204 -0.08946815315463628 0.016532860875180935 255 255 255
-0.22602767652362044 -0.08895728794449277 -0.012534584986312401 255 255 255
-0.3158667784010361 -0.09211378872844798 0.09114047467634642 255 255 255
-0.15818985788257806 -0.0915632543217786 -0.026483487716730376 255 255 255
-0.15323913710742484 -0.08856569091602653 -0.07929596742335135 255 255 255
-0.3222656958373776 -0.09530011771367283 0.024681944256774883 255 255 255
-0.3166296287285835 -0.10888223714533567 0.019929909206843448 255 255 255
-0.29952833044601757 -0.0939755359485597 0.01134338584159907 255 255 255
0.3212449246893323 -0.06959181797094689 0.104598073628184 255 255 255
0.3534980401823901 -0.07736761737474165 0.11206666253985455 255 255 255
0.3436753737459284 -0.08473084758833575 0.12412998644678214 255 255 255
0.314327662083084 -0.08441390828401817 0.11603348209783985 255 255 255
0.29814523138064564 -0.0910602043124493 0.1109203859427908 255 255 255
0.19267240593088372 -0.09282636731682417 0.11468090326952317 255 255 255
0.2998728963490495 -0.10007779437825946 0.1169581838026205 255 255 255
0.2535101811586631 -0.08626542068107024 0.11513985464932075 255 255 255
0.341338035175147 -0.07664393318464004 0.1096059796162463 255 255 255
0.3024346294336791 -0.0932703410189811 0.1258095305696203 255 255 255
0.34844822986381013 -0.07549866873519065 0.11598629263495414 255 255 255
0.34081743318379143 -0.08396124984273969 0.11789164224143585 255 255 255
0.33196304777176516 -0.08535272921686664 0.10094169063326802 255 255 255
0.2686822866004062 -0.07915605434539827 0.1116622847598614 255 255 255
0.26562058860489307 -0.09260352581406743 0.11298418858187692 255 255 255
0.2443901019752578 -0.08700040189443724 0.11882262979604122 255 255 255
0.31567686824397045 -0.08684855467110889 0.10429329501469453 255 255 255
0.21511416495851216 -0.10863973010001896 0.12370441249617371 255 255 255
0.3332161489326229 -0.09431255135680859 0.10369259367919022 255 255 255
0.33417660658099924 -0.09047178607516608 0.09491436854935474 255 255 255
0.36865623134762204 -0.07789119742068663 0.08712252049660354 255 255 255
0.32610405314314295 -0.07752720167568358 0.07425086833809623 255 255 255
0.2511193231826433 -0.07524334572167157 0.10283371341389569 255 255 255
0.2917652547630484 -0.08327291729356424 0.10619027722379618 255 255 255
0.3019692413660719 -0.06148819321426027 0.10952175641403644 255 255 255
0.32597584706752064 -0.07331706913909326 0.08983111701287455 255 255 255
0.3590539176181027 -0.06938664076551933 0.0932727954382232 255 255 255
0.3046093005666131 -0.06931554051556457 0.11026395433008654 255 255 255
0.22672464642948456 -0.07427962471626312 0.09042885584406687 255 255 255
0.3320399061185483 -0.06980517224852895 0.10322622760956332 255 255 255
0.36010786706173314 -0.06311101217480564 0.10217544685801558 255 255 255
0.3109625745879924 -0.056257476896677115 0.09710156053320909 255 255 255
0.20095619517284857 -0.06343304782606851 0.1319060271326597 255 255 255
0.35562134404320284 -0.07576328129734468 0.10381060318175854 255 255 255
0.21424200467307164 -0.062354959266770794 0.11044055771769894 255 255 255
0.3583888248353103 -0.09369383980006403 0.1068823342149195 255 255 255
0.32164903140554535 -0.05904229495859176 0.10800633899572824 255 255 255
0.3297148888889925 -0.07816995989333361 0.10193754575891861 255 255 255
0.3058570211263237 -0.08746696573061696 0.08169124672329352 255 255 255
0.3512392906179488 -0.06318831781136572 0.08985225084283201 255 255 255
0.31157034266638894 -0.08558364220874383 0.11069247276559731 255 255 255
0.31375223389295487 -0.08141519251722645 0.10154630144654227 255 255 255
0.2647659447138066 -0.06974039088636809 0.07434329569790704 255 255 255
0.33544818033852225 -0.07392137859998095 0.07573247679183796 255 255 255
0.337434001523734 -0.07678738587738282 0.0652053747205807 255 255 255
0.340408029556186 -0.06748597920989603 0.06885319943755476 255 255 255
0.2875291438207837 -0.07659561702257739 0.11902536604887765 255 255 255
0.2253970398029436 -0.07699651908277823 0.09198158810388327 255 255 255
0.33950428318146847 -0.0712454543046581 0.09936722800320456 255 255 255
0.3099014447355444 -0.058046289591867646 0.09424822656690601 255 255 255
0.32880009423950707 -0.09257282327624161 0.11630302134439022 255 255 255
0.20408891992963807 -0.0853318703873756 0.11965095529349534 255 255 255
0.3643271911919012 -0.07099463528125641 0.10251984227433872 255 255 255
0.2699724795103174 -0.07444735745429948 0.09963418105032032 255 255 255
0.308474857170323 -0.06765170039811626 0.12046386324037589 255 255 255
0.28334819736419187 -0.059146095575903036 0.11672279103087745 255 255 255
0.3061821782799799 -0.07006811249790318 0.10306489899647217 255 255 255
0.2514381013627711 -0.07619633284712791 0.10043132915276513 255 255 255
0.3162533363104598 -0.06184008257443882 0.08015965726103724 255 255 255
0.31893338837811086 -0.07380414006816761 0.08295299398919946 255 255 255
0.3566964354695963 -0.07460401224557876 0.09645873597921563 255 255 255
0.27921369611376273 -0.07452490956178169 -0.04099948255144375 255 255 255
0.2942183425907712 -0.07768602976687398 -0.03497366682110574 255 255 255
0.21857550097219816 -0.07825547033475233 0.040252961723652794 255 255 255
0.18409252795067718 -0.06271791476668052 0.06941791859547278 255 255 255
0.26984008165111756 -0.05287480494987793 -0.01910915608986618 255 255 255
0.270081625732936 -0.08516063403871287 -0.02345532714981961 255 255 255
0.21288140773598627 -0.07138096777990038 0.04761361886625814 255 255 255
0.17586187327983835 -0.07652130309054697 0.06977198535922766 255 255 255
0.2988553484018304 -0.08088527290199392 -0.05581085500413359 255 255 255
0.2602694155392183 -0.07036688505746491 -0.02741747081141338 255 255 255
0.26146647837705966 -0.0706889976822886 -0.021640570609346762 255 255 255
0.22453528105469428 -0.07890512041073207 0.0381271490192032 255 255 255
0.2057556418575598 -0.07586419133335832 0.09395771956292706 255 255 255
