# .PCD v0.7 - Point Cloud Data file format
VERSION 0.7
FIELDS x y z r g b
SIZE 4 4 4 4 4 4
TYPE F F F F F F
COUNT 1 1 1 1 1 1
WIDTH 648
HEIGHT 1
POINTS 648
DATA ascii
0.26982877867158783 0.07700099796056747 0.04543990593659064 255 255 255
0.1486054271645925 -0.09044058757132892 -0.08333135505928196 255 255 255
-0.004089547417003575 -0.0022037458296604584 0.3641570402162018 255 255 255
-0.18688819697570472 0.08592933961322838 -0.11000232689560717 255 255 255
0.2868508880719491 0.07700099796056747 -0.09473078254501288 255 255 255
-0.03402611661153343 0.0021915636346422993 0.10357335131912604 255 255 255
-0.0743963663579365 -0.018488199548177597 -0.16767427615656474 255 255 255
-0.22810145869320975 0.09258899837732315 0.040263675554083306 255 255 255
0.03432708482988885 -0.03648648582080892 0.20372448977308955 255 255 255
0.05612740098018443 0.09258899837732315 0.007044044951416029 255 255 255
-0.22022856925011297 0.08831423110229814 -0.1096100299616025 255 255 255
-0.32828370817328517 0.07700099796056747 -0.004632255824332271 255 255 255
-0.358066419421149 0.09258899837732315 0.0145830812922821 255 255 255
0.005913012233730058 -0.03142600134015083 0.38521966689513 255 255 255
0.17019522810929147 -0.07157699763774872 0.01924019023619067 255 255 255
-0.3013712593513739 -0.07157699763774872 -0.0713661096915465 255 255 255
0.007570233330436268 -0.012830596551937287 0.3570748942776577 255 255 255
0.2090819924180723 -0.07157699763774872 0.04567487867701478 255 255 255
0.1155379043319712 0.07700099796056747 0.023464519856078142 255 255 255
0.07414057846431961 -0.17556497398874277 0.03721812390470138 255 255 255
0.026385705221394162 -0.09449999779462814 0.0430066981640235 255 255 255
0.2932660925100128 0.09258899837732315 -0.03157964692630899 255 255 255
-0.22510170982190292 0.09258899837732315 -0.04003156454588408 255 255 255
0.25496814479342267 0.09258899837732315 -0.020407341906480303 255 255 255
-9.496245827963438e-05 -0.10702626526685231 -0.16712355918307953 255 255 255
0.20432145661383305 -0.07157699763774872 -0.05025771156749536 255 255 255
-0.1812910035234708 0.09625600278377533 -0.06378398667621507 255 255 255
0.14512873364688753 0.07700099796056747 -0.05786867438495105 255 255 255
-0.30377005031811455 0.07700099796056747 -0.06306423456881333 255 255 255
0.21162224993553794 0.09258899837732315 0.029073034802908085 255 255 255
0.0019037894515088194 0.07700099796056747 -0.011505377844164139 255 255 255
-0.06490121321731146 -0.026759394385630283 -0.03918948325204141 255 255 255
-0.0034794542592040435 0.07700099796056747 -0.08595160412170648 255 255 255
-0.31726194533354257 0.07971324885057005 -0.10846829428054429 255 255 255
0.18480065275676005 -0.0798775115626193 -0.08375712529986779 255 255 255
-0.22185663864547261 0.09625600278377533 -0.06991782506974777 255 255 255
0.04645870549478964 -0.08761255619401849 0.11957615828967436 255 255 255
0.313887793494705 0.09258899837732315 0.08162126711655837 255 255 255
0.07710384151167332 -0.16224611091586782 0.0661022786175004 255 255 255
-0.1311586002496653 0.09258899837732315 0.06267349238085199 255 255 255
-0.0043835719275407544 -0.009526149690675723 0.3888724300274462 255 255 255
0.045023965463492834 -0.07157699763774872 -0.07823404514173597 255 255 255
-0.08187816779125721 -0.18875333696977667 0.021226243444169426 255 255 255
-0.22627008483749858 -0.09449999779462814 0.10251245903983933 255 255 255
-0.13110531457851693 0.07985030180211149 -0.1106586920028244 255 255 255
-0.07517165425283193 -0.07157699763774872 0.11899840653985165 255 255 255
-0.01140747128709596 0.07700099796056747 -0.07360346025570574 255 255 255
-0.008315921858396764 0.03153843682613512 -0.14138188552275877 255 255 255
-0.219617348359039 -0.09449999779462814 0.09631065319597604 255 255 255
-0.015594726768419737 -0.08327391970377615 0.11458586190879722 255 255 255
-0.01972647236121695 -0.07293701918048626 0.22043891620815548 255 255 255
-0.3582532960818144 0.08558232263402578 -0.004463848015489499 255 255 255
-0.316001709245598 -0.09449999779462814 0.08676547247694821 255 255 255
0.2515480253372229 -0.09449999779462814 -0.04330247354475923 255 255 255
-0.07449204518973224 0.09258899837732315 0.04469519923805942 255 255 255
-0.2290763991076739 -0.07157699763774872 -0.009509739278123819 255 255 255
0.0328698612984691 -0.013480556775431474 0.14162333486355605 255 255 255
-0.067659136039951 0.09258899837732315 0.07312804439632992 255 255 255
-0.2503724453210133 -0.07157699763774872 -0.04710859787377207 255 255 255
-0.329889170166003 -0.09199585157593228 0.12400450803327454 255 255 255
0.16329097801275144 -0.07157699763774872 0.0003913493510634275 255 255 255
-0.3142635629088024 -0.09449999779462814 -0.0023800782435458856 255 255 255
0.2157950381916267 -0.07157699763774872 0.037865635736649195 255 255 255
-0.28714861216942733 0.09625600278377533 -0.006020194015230795 255 255 255
0.3039300485681315 0.09441963853805742 -0.02158168937961711 255 255 255
-0.007742983252074224 -0.08018553038743062 0.16454676219218792 255 255 255
0.22139706303936868 -0.09233140016607458 -0.0841876146025754 255 255 255
-0.05935300123048862 0.07700099796056747 0.08382957841897565 255 255 255
0.036108410477201924 -0.04181771358473953 0.1749654832812662 255 255 255
-0.2833997422817236 0.09258899837732315 0.0023331138542109775 255 255 255
0.025268097989256867 -0.09098762909469643 -0.06462686904157378 255 255 255
0.019340230462964663 -0.04305315426221811 0.37623359842179954 255 255 255
-0.02896525474806086 0.07700099796056747 0.0855968829872848 255 255 255
-0.24381413118035172 0.09625600278377533 -0.004760752924418493 255 255 255
0.27711164013857076 0.09258899837732315 -0.0043673383827775025 255 255 255
0.0005653485045230278 -0.07157699763774872 0.021285574622769393 255 255 255
-0.03645530461257823 -0.07157699763774872 -0.04557836879844257 255 255 255
-0.07625714944783628 -0.23209411573727026 0.05644650905599059 255 255 255
-0.20273380604811048 0.09258899837732315 -0.08213123423460383 255 255 255
0.09725375272294294 -0.07157699763774872 0.007152959504567721 255 255 255
0.07516931120562396 -0.18573763595479958 0.04302091592102419 255 255 255
-0.18144871139683297 0.09258899837732315 0.05945234034611106 255 255 255
-0.1473626106085801 0.09419235923870628 0.013388775342399715 255 255 255
0.24825353355222812 -0.07157699763774872 -0.0036812225738957205 255 255 255
-0.11659888445233202 0.07700099796056747 0.0694565632964573 255 255 255
-0.12505080046573208 0.08217805513474473 0.09097622249814144 255 255 255
0.11328125153408133 -0.09449999779462814 -0.05049400087173736 255 255 255
-0.029259673119088947 -0.079509132261594 0.10161030703520174 255 255 255
-0.10526805803984213 -0.09449999779462814 0.1107117856367245 255 255 255
0.04564476584160937 0.09258899837732315 -0.01867218952916483 255 255 255
0.27566799689423765 -0.09449999779462814 -0.013449541767869645 255 255 255
-0.0641711501601741 -0.07157699763774872 -0.04931275669242885 255 255 255
0.04168999638275478 0.09258899837732315 0.06193036564007736 255 255 255
-0.26376938509309944 -0.07157699763774872 -0.028330373710142714 255 255 255
0.01070669062718882 -0.05771454155061955 0.36658680306482205 255 255 255
0.11818320587905684 0.07700099796056747 0.054398437409865934 255 255 255
0.01112689225026442 0.07700099796056747 -0.044291158460004504 255 255 255
0.3501706602496911 -0.09449999779462814 0.02456105519209711 255 255 255
-0.25144011146168876 0.07700099796056747 -0.03861012433219328 255 255 255
0.11810164846122284 0.07700099796056747 -0.010084356349214299 255 255 255
-0.01257994954180619 -0.09449999779462814 0.06862417543012383 255 255 255
-0.24079430632448506 0.09625600278377533 0.025660600275448517 255 255 255
0.011789306102047245 -0.054378794162035386 0.3903808014616166 255 255 255
-0.04561204529895141 0.09258899837732315 0.06231644572563232 255 255 255
0.05445306807533834 -0.09449999779462814 0.08945728826834809 255 255 255
-0.20189469669506832 -0.09449999779462814 0.07463957019849723 255 255 255
0.07536523034442562 -0.18648355009108392 -0.019800376391850463 255 255 255
-0.000506315054863371 0.09258899837732315 0.08450389410598703 255 255 255
0.07264045082909695 -0.1407298510371197 0.029483947786414062 255 255 255
0.021343235193899513 -0.029332999140024185 0.321019677861459 255 255 255
-0.27799919650510824 0.07700099796056747 0.08216324835627029 255 255 255
0.038148010479587866 0.09258899837732315 -0.09865006360792647 255 255 255
0.003056073980297891 -0.1977611709553916 0.037781985965648135 255 255 255
-0.1853415943948063 -0.09449999779462814 -0.040703970365913125 255 255 255
0.06280025081290821 0.07700099796056747 -0.0370038975474357 255 255 255
-0.01859715800560144 -0.07157699763774872 0.012743543990396108 255 255 255
-0.270200579969955 -0.07157699763774872 0.06997886340055665 255 255 255
0.1594367363493017 -0.07157699763774872 -0.07388324035979185 255 255 255
-0.034055111991423595 -0.009503949297052495 0.21510587990035435 255 255 255
0.34888853534567293 0.08292440509638552 0.0345180172774005 255 255 255
0.11607192618361609 0.09258899837732315 -0.09260314269536227 255 255 255
0.13494938828405414 0.09258899837732315 -0.03624253485338758 255 255 255
-0.07905280370521733 -0.03142600134015083 0.35798583388467203 255 255 255
0.0060768342994675095 -0.09449999779462814 0.020562329869471735 255 255 255
0.06257484945520297 0.08092835257631016 0.08876849921987476 255 255 255
0.025034295255467492 -0.0792659283524501 0.05093831475261623 255 255 255
-0.23895030088944813 -0.07157699763774872 -0.015101056936831184 255 255 255
-0.3048631696695736 0.07700099796056747 -0.08178906605762981 255 255 255
0.2938571044208456 0.07700099796056747 -0.017646106275742583 255 255 255
0.01832853236100031 0.0037917081765118897 -0.17481499910354614 255 255 255
-0.28306737061627246 0.09258899837732315 0.08818439835554052 255 255 255
0.07327226176467128 -0.13965483676327067 0.03513916360618262 255 255 255
0.08235794819686336 0.09258899837732315 -0.008064016068104904 255 255 255
0.0005692235880415605 0.020478703072687073 -0.013822670400815584 255 255 255
-0.20468149527875668 -0.09242540660831045 0.12253123435518017 255 255 255
0.008092439156466735 0.07700099796056747 -0.07143108817268745 255 255 255
-0.04352038491570662 -0.03601714868258008 0.2347292087422524 255 255 255
-0.008521263126511358 0.09258899837732315 0.04007073768487651 255 255 255
0.0476260652326149 0.0890542353940696 -0.11276171941921653 255 255 255
-0.027035793577107434 0.008419885831500613 0.08126171028742302 255 255 255
-0.03597918857118158 0.07700099796056747 0.044838276402624416 255 255 255
-0.18384621634727447 -0.07157699763774872 -0.007050917453199496 255 255 255
0.03161581377159444 -0.09449999779462814 0.06027207566533957 255 255 255
0.09347957855105216 0.09258899837732315 -0.06400653557667921 255 255 255
-0.22981173559920556 -0.09449999779462814 -0.010835646085645231 255 255 255
-0.17461038837202703 0.09258899837732315 0.08070556589757925 255 255 255
-0.09078918362733104 -0.07157699763774872 -0.039046599272629934 255 255 255
-0.2202671191501586 0.07700099796056747 -0.021664360674030353 255 255 255
-0.11780036772927624 -0.09449999779462814 0.10129925714580426 255 255 255
-0.03951123502685032 0.07700099796056747 0.022857420080690277 255 255 255
-0.21096172398811058 0.07700099796056747 -0.08532395206818243 255 255 255
0.21413275381882535 0.09258899837732315 0.053553025908496546 255 255 255
0.05104410926654837 -0.01053595912870628 -0.07455370477104777 255 255 255
0.3413627743480844 0.09258899837732315 0.019412054148196793 255 255 255
-0.348391337926711 -0.0781343081280865 0.05003124783179777 255 255 255
0.037124399324424476 0.014316316512443004 -0.12499532335681307 255 255 255
-0.1345102299618245 0.07700099796056747 0.08371366823879217 255 255 255
-0.2269521200451698 0.09258899837732315 -0.07981060768738713 255 255 255
0.3359431168599708 -0.07157699763774872 0.0933230823056329 255 255 255
-0.01438624516032272 0.07700099796056747 0.08601665900518757 255 255 255
0.20963836317277781 0.09258899837732315 0.07072490446358554 255 255 255
0.33861892915662345 -0.09449999779462814 0.04627817755352931 255 255 255
0.30748614914587435 -0.09449999779462814 0.010477488980568002 255 255 255
-0.2161113058568582 0.07700099796056747 0.0033883794423528596 255 255 255
0.1134103403281844 -0.09449999779462814 -0.04043061746366577 255 255 255
-0.013293891413675263 0.07700099796056747 -0.09817688295115848 255 255 255
-0.007951858742707416 -0.19247002425028276 0.05036938639295968 255 255 255
0.05298372674029789 0.07700099796056747 -0.0856714034978859 255 255 255
-0.2863007196075104 0.07700099796056747 0.01466903745221304 255 255 255
-0.051397718076422294 -0.09449999779462814 -0.029247468132612753 255 255 255
-0.2909899186703087 0.09625600278377533 -0.053350604370366886 255 255 255
0.047945866536329845 -0.06056828278626279 -0.02689172359620845 255 255 255
-0.04765278546589335 0.009221457734094864 -0.17481499910354614 255 255 255
0.1259799750050768 0.07700099796056747 -0.004079354732369145 255 255 255
-0.175763809455623 -0.09449999779462814 0.10881088650215984 255 255 255
0.20165402716317532 0.09625600278377533 -0.014510273215815897 255 255 255
-0.3416282776686324 -0.07932116563273839 -0.0077963847394149155 255 255 255
0.053368133963209274 -0.02841625209511371 -0.03994608295563418 255 255 255
0.10495903606182899 0.07700099796056747 0.04878936187043431 255 255 255
0.13227168954824448 -0.07157699763774872 0.09724519208956421 255 255 255
0.0013517643084463016 -0.07157699763774872 -0.018640863866044605 255 255 255
-0.060353298679452216 -0.22334776084426322 0.029340811586049856 255 255 255
0.1271052281494379 0.07700099796056747 0.030180590253210043 255 255 255
0.07301486327320778 -0.029332999140024185 0.36948319570068244 255 255 255
-0.096821667794315 0.09258899837732315 -0.10791718481319806 255 255 255
0.15022667430833575 0.07700099796056747 0.004931197916703503 255 255 255
-0.29514420683582565 0.09258899837732315 -0.06238604303662162 255 255 255
0.0035688203686450037 0.09258899837732315 -0.10204371357590244 255 255 255
-0.02732235861885835 -0.09449999779462814 -0.054395297373536634 255 255 255
0.03685417899096066 0.07700099796056747 -0.04777759177918167 255 255 255
0.09505743543995723 -0.19218248512294656 0.05313560735430356 255 255 255
-0.05750391098983694 -0.079200068278799 -0.12314425385070793 255 255 255
0.10141837204170218 0.09258899837732315 0.045188605138158686 255 255 255
-0.3022669398662918 -0.07157699763774872 0.029646048430862743 255 255 255
0.056778273111373276 -0.18775400966959846 0.042543355326238375 255 255 255
-0.31813855576604905 0.07700099796056747 -0.08616138537391074 255 255 255
-0.2711319859268872 0.07700099796056747 0.04499489503497983 255 255 255
-0.12809790333737747 -0.09449999779462814 -0.039503514681943984 255 255 255
0.11446230670745516 -0.09449999779462814 0.04271661030298851 255 255 255
0.09627180287817104 -0.07157699763774872 -0.013300810214409264 255 255 255
-0.1814437048822861 0.07700099796056747 0.008844871631219178 255 255 255
-0.039364059507805416 -0.07157699763774872 0.03711660109557134 255 255 255
-0.060871949744502316 -0.09449999779462814 -0.06714153460574547 255 255 255
0.050695226140803774 -0.09449999779462814 -0.05395286681756089 255 255 255
0.23795190607588862 0.09625600278377533 -0.04629094894015131 255 255 255
0.21225501041049943 0.07700099796056747 -0.10270426219206194 255 255 255
0.12542723116921334 0.07700099796056747 -0.04144600929554175 255 255 255
0.10184640129354072 0.09258899837732315 -0.0029887377197821557 255 255 255
0.3250903774291309 -0.09449999779462814 0.11259629937918685 255 255 255
0.26638205092563727 0.07700099796056747 -0.11047966218172814 255 255 255
-0.048200900555740445 0.09258899837732315 0.05463408735356515 255 255 255
-0.16680569321907104 -0.07157699763774872 -0.005332488194333018 255 255 255
-0.01876427302998019 -0.04840832597009714 0.41293299198150635 255 255 255
0.25372722089060706 -0.09449999779462814 0.10334173171391925 255 255 255
-0.2594545429357764 -0.07157699763774872 -0.013383723327220848 255 255 255
0.3221129487190222 0.09258899837732315 -0.04049996758493227 255 255 255
0.2949365547782573 -0.07157699763774872 -0.009516915782469992 255 255 255
-0.12585659497689602 -0.09449999779462814 0.09047061258607086 255 255 255
-0.19611367013054215 -0.09449999779462814 0.0712975425273295 255 255 255
0.3487216829886115 -0.09449999779462814 0.05818138492960298 255 255 255
0.14721134018473958 -0.09449999779462814 0.09305510943405257 255 255 255
-0.18579313503209757 -0.09449999779462814 -0.03338467007918294 255 255 255
0.048005808992935675 -0.004718456879346999 -0.0703841802821397 255 255 255
0.19426605466332397 0.09258899837732315 0.04880648211083874 255 255 255
-0.2329725964350481 0.0857831148873874 0.03907505482158983 255 255 255
0.29413508759978035 0.09258899837732315 0.06389952805720313 255 255 255
0.02464397743435298 0.07700099796056747 0.011154971976600925 255 255 255
0.20181394539207165 0.09258899837732315 -0.06397711169953421 255 255 255
0.02948934233373767 -0.04607974094206689 0.24838975387621876 255 255 255
-0.01910471869180566 0.009692803212162947 0.10398635105552456 255 255 255
0.014116548279063413 -0.006325511139989991 0.24643410722403458 255 255 255
-0.20430398860601245 0.09258899837732315 -0.031022670701772254 255 255 255
-0.028588963537732257 0.015293884667735937 -0.0036438103269739452 255 255 255
0.07918291995313691 -0.19680983295281357 0.07383910531064984 255 255 255
0.21429698729490915 -0.09449999779462814 0.06262029531898056 255 255 255
0.007502009243244401 -0.07157699763774872 0.054005815292906545 255 255 255
0.07493500733527388 -0.13278595032253154 0.05117484465507742 255 255 255
-0.029882035108186097 -0.05402938192434163 -0.16472899913787842 255 255 255
0.09826118238761195 0.09258899837732315 0.07424260222882474 255 255 255
0.06636788816779496 0.07700099796056747 -0.06489057637203793 255 255 255
-0.07072088334638478 -0.2308879659771121 0.017665454138455054 255 255 255
-0.141229439443127 0.09258899837732315 -0.0646430457121594 255 255 255
-0.06170625214028819 0.09258899837732315 -0.10805057364738191 255 255 255
0.06531768507433873 -0.09400770638871564 -0.019172803245616748 255 255 255
0.108734984019473 -0.07157699763774872 0.020852396997475542 255 255 255
0.20842743815074205 -0.09449999779462814 0.1067589187637789 255 255 255
-0.021507473124044867 -0.017857050126913833 0.391187886184452 255 255 255
0.05832053829859094 -0.07157699763774872 -0.02764461080672618 255 255 255
0.34228882377246533 -0.07157699763774872 0.021921840430222047 255 255 255
-0.20744899491758487 -0.09449999779462814 -0.019946997625634018 255 255 255
-0.24926245457635288 0.09625600278377533 -0.01819777726159582 255 255 255
0.058280855922445154 -0.04755201998618804 -0.10293183611985546 255 255 255
-0.0005770296226659684 -0.10067251039311273 -0.0893423129307146 255 255 255
-0.05750390125001763 -0.028076780097059814 0.05257290583981067 255 255 255
-0.08270956196337467 -0.20055719381533982 0.010822934040950465 255 255 255
0.14897709380275365 -0.07157699763774872 0.07737952294315362 255 255 255
-0.04651977145351906 -0.038945738994911216 -0.1661472059052028 255 255 255
0.03896191540802866 -0.0004945328922958472 -0.014105776099863965 255 255 255
-0.14893701988787508 -0.09449999779462814 0.0032529112674024724 255 255 255
0.11686103447302079 -0.07157699763774872 -0.03986826667043952 255 255 255
0.20711126217676368 -0.09449999779462814 0.06333902559299487 255 255 255
0.09038080410895204 0.07700099796056747 -0.006617173217327604 255 255 255
-0.11600627833717173 -0.09449999779462814 0.06703234061422964 255 255 255
0.27975450362897514 -0.07157699763774872 0.11596466976353963 255 255 255
-0.20327765231304357 0.07700099796056747 -0.08729038450414414 255 255 255
-0.007382329673567884 -0.10278263881162267 -0.108767939827155 255 255 255
-0.3002292951953282 0.09258899837732315 -0.0988370226420195 255 255 255
-0.049833542874512755 -0.006994839796752878 0.04340340994448799 255 255 255
0.008599112515983508 0.09258899837732315 -0.08641368714874602 255 255 255
0.2671798499909333 -0.07157699763774872 0.023161318346218582 255 255 255
-0.1572177770053442 -0.09449999779462814 -0.0020789984828370606 255 255 255
-0.27866217433764023 -0.09449999779462814 -0.05274714333250159 255 255 255
-0.22244350681798328 0.09625600278377533 0.012013074876718835 255 255 255
0.1809028315958166 -0.07157699763774872 -0.010448814604264098 255 255 255
-0.315233509377429 -0.09449999779462814 0.0033849700917369108 255 255 255
-0.03910368312422987 -0.19430825421649284 0.053968368270199116 255 255 255
-0.33084365659592224 0.07700099796056747 0.08724541585944759 255 255 255
-0.00535623149335838 -0.033743997975646325 0.3272170246813358 255 255 255
0.044490627159751 0.07700099796056747 -0.061347593709074555 255 255 255
0.07684477184991578 -0.09449999779462814 0.08270615188380204 255 255 255
-0.006276577693082085 0.007665173528843033 0.15122864442993195 255 255 255
-0.09175568836733594 0.09258899837732315 0.07706200161326557 255 255 255
-0.23195385591122797 0.06347806340437451 0.03987760224767679 255 255 255
-0.242092701460685 -0.07157699763774872 0.06503737943060381 255 255 255
-0.043422083612264906 -0.07157699763774872 0.04255836256328534 255 255 255
0.06258485746267499 -0.03439783702765814 -0.14211414019125243 255 255 255
0.1474094621627857 0.07700099796056747 -0.07937710586452013 255 255 255
-0.11498983479871658 -0.09449999779462814 0.0935633715675967 255 255 255
-0.242330882030176 0.09625600278377533 0.05071327330051739 255 255 255
-0.07919836760159199 -0.19791694684413835 0.001818154308552383 255 255 255
-0.06238501682788108 -0.09449999779462814 0.030086637304137437 255 255 255
-0.07352998893657836 -0.07157699763774872 0.04529676932382143 255 255 255
0.1129338076762097 -0.09449999779462814 0.07173741756289045 255 255 255
-0.26246339306527633 -0.09449999779462814 0.062223901776403884 255 255 255
-0.033190674928837746 0.024989614893239698 -0.17481499910354614 255 255 255
0.20596489750180055 -0.07157699763774872 -0.0829965898557774 255 255 255
0.0582049870655828 0.09258899837732315 -0.05112097807473617 255 255 255
0.026594185905998435 0.09258899837732315 0.07850756303368614 255 255 255
0.04379201375207832 -0.016306672703405835 0.03435053005731284 255 255 255
0.1644964868501456 -0.09449999779462814 -0.016843426830996377 255 255 255
0.2454666650848234 0.09258899837732315 -0.01952431579119794 255 255 255
-0.05287017926966462 0.07700099796056747 -0.09347019036385883 255 255 255
-0.2278059182921071 0.09625600278377533 0.025296221092630574 255 255 255
0.2991842955018766 0.07700099796056747 -0.08915360089440078 255 255 255
-0.3003490039213269 0.07700099796056747 0.08931101026182865 255 255 255
0.3095064825349418 -0.07642488296766554 -0.0798504294392883 255 255 255
-0.278120008924184 0.09625600278377533 0.0024256675149027344 255 255 255
-0.11027783653518652 0.09258899837732315 0.08094345066592366 255 255 255
-0.25243249675171936 0.09258899837732315 -0.026295233246462907 255 255 255
-0.19094927080068302 0.09102147961953459 -0.10995454258182707 255 255 255
-0.17672193802570435 0.09625600278377533 0.030097847326708907 255 255 255
0.017739654893831176 0.017241674245495088 -0.030152956924362873 255 255 255
0.033621950176661905 0.012005541712639047 -0.07651751357939265 255 255 255
0.03504394645823744 -0.038187507542016795 0.1936603859299827 255 255 255
0.03878652518646518 -0.07775488923650542 -0.0454251750554589 255 255 255
0.26493191045091913 0.09258899837732315 -0.10383977548344368 255 255 255
0.10522248089141166 0.07700099796056747 -0.05323101598341279 255 255 255
-0.13487186424833728 0.07999483582287202 -0.11061437318493343 255 255 255
-0.03777434466195436 -0.06167454900299884 -0.16502687798380805 255 255 255
-0.1813759041909238 0.07700099796056747 0.04285581056904139 255 255 255
-0.35674642060117473 0.07700099796056747 0.020313328336513364 255 255 255
-0.23510478580469812 0.08602528737932034 0.03988369776908518 255 255 255
-0.03654726087631588 0.09258899837732315 0.0608773917082288 255 255 255
0.293749407883809 -0.07157699763774872 0.016209829329451544 255 255 255
0.04618486422714496 0.07700099796056747 0.06740015933319446 255 255 255
-0.32331986475310975 0.09606471604087483 -0.0002971736251367943 255 255 255
-0.15757664233397836 -0.09449999779462814 -0.03849457705936027 255 255 255
-0.01945108448304711 0.07700099796056747 0.051224608948771434 255 255 255
-0.21906390526418218 0.09258899837732315 0.06726445873130242 255 255 255
-0.024854870896681647 0.07700099796056747 -0.07635031774812129 255 255 255
-0.3116422116458423 0.07700099796056747 -0.07689016481620939 255 255 255
0.1364063623366899 0.07700099796056747 -0.06596762926985339 255 255 255
-0.05246141729876515 -0.0838494507087483 -0.1097142044844216 255 255 255
0.22277924545261923 0.09258899837732315 -0.05509848859630977 255 255 255
0.0510332231811768 -0.002478278667513205 -0.11641814605989947 255 255 255
-0.037514438801128855 -0.08871523129957695 -0.045674396225723585 255 255 255
0.15412804721587378 0.09258899837732315 -0.05020653878926555 255 255 255
-0.08682611366244433 0.09258899837732315 0.0581007912314732 255 255 255
-0.003783781361174965 -0.07157699763774872 0.1006905411087773 255 255 255
0.19269871886433232 -0.09449999779462814 0.08034250464687046 255 255 255
0.23539742129792338 0.09258899837732315 -0.08993398346447443 255 255 255
-0.096145753873977 0.07700099796056747 0.0897912003541525 255 255 255
-0.12342569361180578 -0.07157699763774872 0.05686062186588179 255 255 255
0.0419208235383991 -0.09449999779462814 -0.004215789975788142 255 255 255
0.27113093703282043 0.09258899837732315 -0.06246182830653052 255 255 255
0.3053136337272699 0.0835339792330386 0.08591270304453219 255 255 255
-0.2556426081186217 0.09258899837732315 -0.05709373638520271 255 255 255
0.2921075704163168 -0.08975668039713897 -0.08501939357016006 255 255 255
0.08629352224540496 -0.1613578368104498 -0.01226023326885861 255 255 255
-0.11112385766675355 0.07700099796056747 -0.0891601173424546 255 255 255
0.3069227881531455 -0.07157699763774872 -0.07093254482233025 255 255 255
-0.1603605266816159 -0.07157699763774872 -0.010420356745524356 255 255 255
0.24278190013782402 0.0377717687277173 0.028722513644473157 255 255 255
0.027123588988579694 -0.07157699763774872 -0.07228278361053567 255 255 255
0.04448439666351943 -0.05236576290082684 0.05057563255962738 255 255 255
-0.061810407388264696 -0.1470854952507974 0.031113430448472618 255 255 255
0.009048370587854467 -0.036268144125026894 -0.17481499910354614 255 255 255
0.007409307456159906 -0.0158622400047625 0.3888442681129367 255 255 255
0.001627686196809256 -0.09849068657643391 -0.06641514183676324 255 255 255
-0.3309612720911985 -0.07157699763774872 0.06655536920026216 255 255 255
-0.16999684161382705 -0.09449999779462814 0.061550752215148774 255 255 255
-0.2716821883486701 0.07700099796056747 0.08576860360093541 255 255 255
-0.045881402477871855 -0.06320940851915428 0.10858228622444849 255 255 255
0.02286515008808615 -0.07157699763774872 -0.04577673088610423 255 255 255
-0.04941716821651212 -0.017407528655673597 0.10939455052121971 255 255 255
0.24712937912755634 -0.07765548256310098 0.11721516980196668 255 255 255
0.02500772152295195 -0.06518522899110421 -0.16243700683116913 255 255 255
0.06405733715055031 -0.029332999140024185 0.3769793564256739 255 255 255
0.2280905418156581 -0.07157699763774872 0.05122650479760456 255 255 255
-0.3289814782755508 -0.07157699763774872 0.02830802323007016 255 255 255
9.422881296744165e-06 -0.08473408492185594 0.10290688580135388 255 255 255
-0.005818849021773072 -0.045269803017075075 0.32184101557722355 255 255 255
-0.053940778671301426 -0.07984029622830993 0.1207575229448294 255 255 255
0.30052198003666275 0.07700099796056747 0.017688058138836678 255 255 255
0.19765277635360307 -0.07157699763774872 -0.03605316376259946 255 255 255
-0.022478706055368267 -0.08422462835177567 0.08007369541609272 255 255 255
-0.245765271302274 0.07700099796056747 0.08404725843603197 255 255 255
-0.03326112922204173 -0.015577244774957547 -0.17481499910354614 255 255 255
-0.04667249766988628 -0.03892879394679891 -0.16775193340480285 255 255 255
0.006797937086336567 -0.03765551703954132 -0.17233074498374054 255 255 255
-0.00988789420200114 0.008186579738715567 0.1391443092774402 255 255 255
0.09079144392245836 0.09258899837732315 0.059034000545687006 255 255 255
-0.052274750699062345 0.09258899837732315 -0.09633952444983039 255 255 255
0.07708669362272215 -0.07157699763774872 0.05799238095301933 255 255 255
-0.012419546508342583 -0.08955546328450964 0.043516164614981895 255 255 255
0.18261699512104124 0.09625600278377533 -0.07278800588617913 255 255 255
-0.3228525738405937 0.07700099796056747 0.03421935392272635 255 255 255
-0.10961123371975078 -0.08393205620366367 -0.08029357126085453 255 255 255
0.3019719624705175 0.07700099796056747 0.05982032793700284 255 255 255
0.06814786336178104 0.09258899837732315 -0.07021483471507889 255 255 255
-0.21161612862254772 0.09625600278377533 -0.0803587709653786 255 255 255
-0.07886309910961978 0.09258899837732315 -0.04514085235783025 255 255 255
-0.09886999827271399 0.07700099796056747 0.06864770773604856 255 255 255
0.1345278340114094 -0.09270386799077303 -0.08316575810107166 255 255 255
-0.012175735804814347 -0.07157699763774872 0.011148572615669317 255 255 255
-0.012291088472539943 -0.08235908240780446 0.13094622857693622 255 255 255
0.23087617505919952 -0.07157699763774872 -0.041922500503680404 255 255 255
-0.24064151850300255 0.09579800069332123 -0.007523223964688302 255 255 255
0.29975571548075275 -0.07157699763774872 0.045274578559762246 255 255 255
0.23287391385523248 0.07700099796056747 -0.10445923680318668 255 255 255
-0.28654395530371546 0.09258899837732315 -0.07997428675534564 255 255 255
-0.08044128714714173 -0.15717531474656202 0.042403302537776064 255 255 255
-0.05562192853580859 -0.016733189051884492 0.03616074597436775 255 255 255
-0.16951271876620055 0.09258899837732315 0.05232735589586007 255 255 255
0.16333214674013818 0.07700099796056747 0.005688540456330729 255 255 255
-0.18743694569928118 0.09625600278377533 0.06112753040627386 255 255 255
0.05127366733777146 -0.0037731647991637828 -0.10911365678371954 255 255 255
0.06918037236194247 -0.07157699763774872 -0.07708869432364837 255 255 255
-0.03967449118927906 0.012826639632516987 -0.04160999959561307 255 255 255
0.05951620594428025 -0.03902464071367745 -0.10429792953454016 255 255 255
0.1704742386905984 0.07700099796056747 -0.06767708537558613 255 255 255
0.035263321961328725 0.005658077668337383 -0.027170945915159422 255 255 255
-0.2807333132240449 -0.07157699763774872 -0.02689539042380612 255 255 255
0.1717324990056288 -0.09449999779462814 -0.03247324792915774 255 255 255
0.20519509996135127 -0.09449999779462814 0.005248373864702449 255 255 255
0.1750491548713972 0.07700099796056747 0.04898015526878094 255 255 255
0.16663940170786576 0.07700099796056747 0.04499824782936304 255 255 255
0.012237827788023768 -0.057999569312689715 0.3524277761343884 255 255 255
0.016386931761826113 -0.05973633681842913 0.30470616126094363 255 255 255
-0.1038009996532211 -0.07157699763774872 -0.05766372501313366 255 255 255
-0.0008275848139627541 -0.061879232283593245 0.3812586257810482 255 255 255
-0.005021468906250368 0.07700099796056747 0.058212140904573356 255 255 255
0.2312507377509784 -0.09449999779462814 0.03152767461196994 255 255 255
-0.250208973686486 0.09625600278377533 0.05849511374210449 255 255 255
-0.0709699823036869 -0.09449999779462814 0.018950290299953085 255 255 255
-0.2352734036605379 -0.03978572431798713 0.04027960557531852 255 255 255
-0.2189227189053885 0.09625600278377533 -0.027262507778758348 255 255 255
0.16195443402329374 0.07700099796056747 0.03983655803716998 255 255 255
0.05196952855449305 -0.09449999779462814 -0.04049398035889013 255 255 255
0.26025237773887966 0.09258899837732315 0.020403743443035458 255 255 255
-0.12821113082944635 -0.0822254466727482 -0.08007471816214272 255 255 255
0.3201970596895657 0.09258899837732315 -0.026811122504333595 255 255 255
-0.05618323955251257 -0.035747470496187254 0.08081557938900447 255 255 255
-0.030152464448266025 0.07700099796056747 -0.043801670419943095 255 255 255
-0.0047096933755596945 -0.017648337440162067 0.34367270625896107 255 255 255
-0.01752058304167881 -0.09437443499766654 -0.16554304216623353 255 255 255
0.03409749436455434 0.07700099796056747 0.06297119464617124 255 255 255
0.16808954167493723 0.09258899837732315 0.054177712995677564 255 255 255
-0.029911870769906923 0.09258899837732315 -0.07949834113239931 255 255 255
0.08216882189289562 -0.21460756458141791 -0.013724991192376329 255 255 255
0.19117572819070655 0.07700099796056747 -0.05676831877046587 255 255 255
0.048453926165572425 0.09258899837732315 0.06516527377275379 255 255 255
0.25280140720490074 0.09258899837732315 0.0834046894989466 255 255 255
-0.2599785586388622 0.07835078121707431 0.09256386871137873 255 255 255
0.23242728383166356 -0.07157699763774872 0.05715193914498094 255 255 255
0.04816597956942543 -0.014599923684953966 -0.1641845077252486 255 255 255
0.234833720724454 0.09625600278377533 0.028028991165662792 255 255 255
0.0909574247622796 -0.21504883872480265 0.07693425640532572 255 255 255
0.20042385278337074 -0.09449999779462814 0.0163520173341324 255 255 255
0.0994234438245659 0.09258899837732315 0.05489677827235449 255 255 255
0.3281431500786057 -0.09449999779462814 -0.026650400637496782 255 255 255
0.21762437856394737 -0.07157699763774872 0.051519767130739 255 255 255
-0.1679322436355623 -0.07157699763774872 -0.017830952698153386 255 255 255
-0.24113306976735777 -0.07157699763774872 0.11242688757756207 255 255 255
-0.014365573719487967 -0.06403174789624723 0.3461045785046355 255 255 255
0.01986749085362459 0.07700099796056747 -0.015284664219780975 255 255 255
-0.004632558727562287 -0.01572767898851287 0.3768297599940923 255 255 255
-0.043788061932327066 0.011116804781388545 -0.05564126399309033 255 255 255
0.3423575907345918 -0.09449999779462814 0.06508712271518667 255 255 255
-0.260494336978497 0.09258899837732315 -0.032298053646839395 255 255 255
0.21394811750205467 0.09625600278377533 0.029844497270517998 255 255 255
-0.04750416633381438 0.09258899837732315 -0.056784741969550134 255 255 255
0.08976449168127736 -0.18844153942160408 0.009394247182418835 255 255 255
-0.05774652014284519 -0.10273383801828986 0.07817151029079192 255 255 255
0.028611205458414703 -0.07910817713348486 -0.08191984402176745 255 255 255
-0.20032817904684447 0.07700099796056747 -0.03975370695840359 255 255 255
-0.008872066507360749 0.07700099796056747 0.003541265865514176 255 255 255
-0.08892932031729811 0.09258899837732315 0.039345612955325494 255 255 255
0.28641241247201193 -0.07787666083145484 0.11675305515055076 255 255 255
0.04643017975576353 -0.04173126814948501 0.0499956941465729 255 255 255
-0.17721791342353238 -0.07157699763774872 -0.05227749172894036 255 255 255
0.17656396428224155 0.07700099796056747 -0.0647445803374771 255 255 255
0.13169347446377375 0.0865792660859372 0.040540705379853395 255 255 255
0.1284528391398028 0.07700099796056747 -0.08791396309336363 255 255 255
-0.2511576573427902 -0.09449999779462814 0.05183695775152203 255 255 255
-0.08044180876858599 -0.1642012095116338 0.040394708078297294 255 255 255
-0.05732865738900366 -0.0633217402998597 -0.012320939509965545 255 255 255
-0.006482096923801105 0.010074039985926379 0.12170386055939009 255 255 255
-0.030952593071654502 -0.10091869961409977 -0.14812305397759487 255 255 255
0.31314476662704804 0.07700099796056747 -0.07175952097559879 255 255 255
0.07780535067609573 -0.07157699763774872 0.01408986078788095 255 255 255
0.18867158997518513 0.09258899837732315 0.02303160368177823 255 255 255
-0.24176039602013477 0.09258899837732315 -0.04497881816261903 255 255 255
-0.2771609996296859 0.09625600278377533 -0.046795972695783866 255 255 255
0.15897146591710015 0.07700099796056747 0.05231942450222138 255 255 255
0.30041093483225123 -0.07157699763774872 0.031205125854271605 255 255 255
-0.3183919283524218 -0.09449999779462814 0.11009641481434779 255 255 255
-0.1146218387550112 0.07700099796056747 0.03201770731784073 255 255 255
0.035840788071988317 -0.0857932535756501 -0.09278951622061204 255 255 255
-0.2817283469657595 -0.07157699763774872 0.014318392158322507 255 255 255
0.314430682247618 0.07700099796056747 -0.07655212330889771 255 255 255
-0.05787125010292906 -0.0014115892507288084 -0.07610515653001368 255 255 255
0.0077764268683981185 0.018384909612446702 5.470916888564159e-05 255 255 255
-0.04288414254047221 0.09258899837732315 -0.0499765814871872 255 255 255
0.2542519970831334 0.09625600278377533 0.05893024079900765 255 255 255
0.18833814315558206 0.07700099796056747 0.026727345782599027 255 255 255
-0.06276928869428007 -0.19692303074146814 0.0164328804854764 255 255 255
0.020263297220704163 -0.03018450522588179 0.364128496188419 255 255 255
0.3420191357599696 -0.07157699763774872 0.043979441163150265 255 255 255
0.1651472479975832 -0.09449999779462814 -0.03130996056931754 255 255 255
0.20722557922859605 -0.07660287402400187 -0.08402091326215778 255 255 255
0.06334093867863244 0.09258899837732315 0.053262048962874974 255 255 255
0.14584101220984794 -0.09449999779462814 -0.07459090835716208 255 255 255
0.0846392948453978 -0.14765194486887695 -0.001478272166655613 255 255 255
-0.24218981649864582 -0.09449999779462814 0.02116263009190618 255 255 255
0.3072232559389078 -0.09449999779462814 0.000698893368213091 255 255 255
-0.26506802657762385 0.09625600278377533 0.06368150326437087 255 255 255
-0.19768415655462943 -0.09449999779462814 -0.015516629323427247 255 255 255
-0.1638283121831985 0.09258899837732315 0.06626584040293076 255 255 255
0.20976386818930992 0.09625600278377533 -0.06737575559719404 255 255 255
-0.21279111449913463 -0.07157699763774872 -0.025899456551296163 255 255 255
-0.004860972546900452 -0.021410090211956282 0.33303755199926344 255 255 255
-0.022113139417919328 -0.00692149632587453 0.27756667652288414 255 255 255
0.2584055218632845 -0.09449999779462814 0.02195134114364318 255 255 255
0.06922897309128835 0.07700099796056747 -0.09964797341582633 255 255 255
0.13241031803411515 0.09625600278377533 -0.03575561030019664 255 255 255
-0.05363039756723606 -0.009918136084115759 -0.1651879996061325 255 255 255
-0.12756586437832607 -0.07157699763774872 0.03099304567992031 255 255 255
0.08588454445582414 0.09258899837732315 -0.019873487418595584 255 255 255
0.09883369618340665 -0.09449999779462814 0.06628893273300904 255 255 255
0.05014514632125729 -0.035660796299575505 -0.17481499910354614 255 255 255
-0.23898100141617823 0.07700099796056747 -0.05803219985629729 255 255 255
0.02969797521381179 0.003358761706671506 -0.17481499910354614 255 255 255
-0.042672214819907205 -0.017462574709616395 0.18583463311251092 255 255 255
-0.02054929021394429 -0.07700665180124407 0.17062450094809972 255 255 255
-0.2711831690880826 -0.07157699763774872 0.08692361014346285 255 255 255
0.09459250335722308 0.09258899837732315 0.060336452063603885 255 255 255
-0.03196499593201085 -0.07157699763774872 -0.03997386346683199 255 255 255
-0.12160482948912191 0.09258899837732315 -0.07891847129851448 255 255 255
0.2232104228944749 0.09625600278377533 -0.0783094124511262 255 255 255
-0.0832282377997321 -0.191224136424339 0.0025799376255174044 255 255 255
0.1698836618733233 0.09625600278377533 -0.08371406758372331 255 255 255
0.3167126649371021 -0.07157699763774872 -0.05020488469819575 255 255 255
-0.0429079483449815 -0.060579517163418674 0.15699442514884787 255 255 255
-0.051993909224742056 -0.03142600134015083 0.40229907757132044 255 255 255
-0.04879783309310636 -0.06513146108394154 0.06599234215881256 255 255 255
0.09084968207071523 -0.19026340814122455 0.018062485510389584 255 255 255
-0.3069643466500499 0.07700099796056747 -0.10827171738428729 255 255 255
-0.3216209475089129 0.07700099796056747 -0.029895253154793175 255 255 255
0.030773648796299735 0.09258899837732315 -0.05281771443386274 255 255 255
0.05881298292179191 -0.09422457089238379 -0.08227511231415656 255 255 255
0.14022956750177692 0.09625600278377533 0.0075461766808015834 255 255 255
-0.0033301692732038255 -0.08036122865365586 0.16123670459740647 255 255 255
0.1362774954042923 0.09625600278377533 -0.020093171118076972 255 255 255
-0.01694793412187895 0.00039251382353204176 -0.1665630042552948 255 255 255
-0.06125590152628884 -0.18489050117629388 0.03267535994695555 255 255 255
-0.2815984373527747 0.07700099796056747 -0.08521454342446311 255 255 255
0.045744887877276375 -0.012947134304146842 -0.0034219137874949845 255 255 255
0.07577038428718467 -0.15776089201046764 -0.00982294498033808 255 255 255
-0.27902978950513213 -0.09449999779462814 0.08055539921918081 255 255 255
0.12755685722070015 0.0744364825173327 0.006576818349002435 255 255 255
0.26141614252776074 0.09258899837732315 0.03346814860172945 255 255 255
-0.27028519478224694 -0.07157699763774872 0.03774505640503076 255 255 255
0.30295743751635645 -0.09449999779462814 0.10066430015600436 255 255 255
-0.28820153507039165 0.09258899837732315 -0.033953817443606205 255 255 255
-0.1616339098619402 0.07700099796056747 -0.011797719877366525 255 255 255
-0.057988307309622136 -0.17807236326050094 0.0622861712514992 255 255 255
0.06691676710299546 0.07700099796056747 -0.07513479418384272 255 255 255
-0.2028829160836251 -0.09449999779462814 0.046984566677302095 255 255 255
0.06815225995168483 -0.1889645848450814 -0.017300130802844628 255 255 255
-0.016054174684831033 -0.021078822737102803 0.03712313200229449 255 255 255
-0.0007719970896275501 0.09036053087225016 -0.11219224854996403 255 255 255
0.1741029954676873 -0.07157699763774872 0.11066589432951074 255 255 255
0.205280649077925 0.09258899837732315 0.07045422211349543 255 255 255
-0.05802951734006463 0.0007291420459261122 -0.0935722542223929 255 255 255
-0.057761112815966464 -0.09449999779462814 0.1096018504135906 255 255 255
-0.06619847643130775 -0.0344003697133763 -0.18765200674533844 255 255 255
-0.18646945000042986 -0.0795313980452351 -0.07938922976394805 255 255 255
0.26708832221780954 0.09625600278377533 -0.00780791149961324 255 255 255
-0.24895309660893727 -0.09170348480926423 -0.07865402470746073 255 255 255
-0.059028231217395366 0.07700099796056747 0.02796827078198723 255 255 255
-0.03943050218365607 0.09258899837732315 -0.007857214081716121 255 255 255
-0.05919758259012495 -0.11245522713082699 0.06311377906738097 255 255 255
0.23274207746901346 -0.09449999779462814 0.01737894270289303 255 255 255
-0.06538562183834035 -0.05527431275065653 -0.06567062765552273 255 255 255
0.27878991861383545 -0.07945688320422342 -0.08486273592243593 255 255 255
0.15105818281377115 -0.09449999779462814 0.08547186015693242 255 255 255
-0.12540721753642536 -0.0865793931324607 0.1215984425518565 255 255 255
0.31857179453599127 -0.09211826484638568 -0.06503508827631314 255 255 255
-0.051935504847629016 -0.08492926296647196 -0.11627346786806964 255 255 255
0.10156387317716496 0.09258899837732315 0.03343038437091006 255 255 255
0.007488556716707262 -0.08938890698680474 0.034552648054688995 255 255 255
-0.2113927966858104 0.09258899837732315 0.010511607762556885 255 255 255
-0.002793933981048158 -0.07157699763774872 0.12013328201570227 255 255 255
0.0378848276030352 -0.08169703782587598 -0.06827203453795366 255 255 255
0.09783342111339607 0.09258899837732315 -0.09843354319327674 255 255 255
0.23842812642255534 -0.07157699763774872 0.04955894600161892 255 255 255
0.050815520455418026 0.09258899837732315 -0.06350136014789881 255 255 255
-0.22460139334361728 0.07700099796056747 -0.07807709953860971 255 255 255
0.0024865210300723042 -0.09888464035927667 -0.07256058840937933 255 255 255
-0.2320465823146842 0.09258899837732315 -0.037014161317603586 255 255 255
-0.09954277778379075 -0.09449999779462814 0.015320930507097777 255 255 255
-0.005713084583376391 -0.04263365004657854 0.31373622477024066 255 255 255
0.15857554524978093 0.07700099796056747 -0.07789216153320304 255 255 255
0.023310660448202514 -0.09449999779462814 -0.06048308203481184 255 255 255
0.2773182448353975 0.09258899837732315 0.007022752755735329 255 255 255
0.17715395124873579 -0.07727763993823625 -0.08366717593875951 255 255 255
-0.010116815894344475 -0.07424118849512007 -0.08146425847042335 255 255 255
-0.08265210512257404 0.09258899837732315 -0.07611615870130571 255 255 255
-0.2979031053024834 -0.08924417707536583 -0.07807806124801944 255 255 255
-0.3222646091304461 0.07700099796056747 0.008599102429676084 255 255 255
0.018213264562876204 -0.017764943340910194 0.31566050583355076 255 255 255
-0.10006716556741568 -0.09211720907598483 0.12130027530964818 255 255 255
-0.18566117583277783 -0.07157699763774872 -0.01363212848269442 255 255 255
0.03437577894566063 -0.06315252208708586 0.10602316029956704 255 255 255
-0.3053336675758418 -0.07157699763774872 -0.0008253105509959113 255 255 255
-0.04237678763499164 -0.09449999779462814 -0.030528431316580812 255 255 255
0.091288350757068 0.028476581382615024 -0.010685390686009485 255 255 255
-0.3388444318315525 -0.07157699763774872 0.06426328579461058 255 255 255
-0.3460403412301272 0.09191107273015156 -0.06115587706062628 255 255 255
-0.056128643567921285 -0.08467663554493728 -0.15056193380049343 255 255 255
0.10624397217318576 -0.07157699763774872 0.04619565857960434 255 255 255
-0.34614683469395185 -0.07157699763774872 0.019935571838651314 255 255 255
0.24738260078529012 -0.08588759582515088 0.11721219097298806 255 255 255
-0.1736833159065007 -0.09449999779462814 0.08052247264011667 255 255 255
-0.32433756447254986 -0.07174727761171198 -0.056341946215438636 255 255 255
-0.24953326129480885 -0.07157699763774872 0.02321362828470097 255 255 255
-0.060883705806366026 -0.001901786212070579 -0.10167406085027597 255 255 255
0.12940996956129527 0.07700099796056747 -0.06350103371120902 255 255 255
0.06651924290319303 0.09258899837732315 0.06264393429648932 255 255 255
-0.3495424176567509 0.07736097528274055 0.08708511455576967 255 255 255
-0.17745286701212576 0.09258899837732315 -0.015445879137864632 255 255 255
0.1602500037994236 -0.07157699763774872 0.0362947309858109 255 255 255
0.24156111808507744 0.07235021468381025 0.028369388898492904 255 255 255
-0.3241768159399833 -0.07157699763774872 0.0657529839832894 255 255 255
-0.09789870252259503 -0.07157699763774872 0.012052807389328568 255 255 255
-0.09515646119079366 -0.09449999779462814 0.08058287921535946 255 255 255
0.09953535697456872 0.07700099796056747 0.025120983493434987 255 255 255
-0.26228919044290266 0.08654662618824795 0.09259105725687383 255 255 255
-0.028258875550296103 0.09258899837732315 -0.0658337343235911 255 255 255
0.17717815073409193 -0.07157699763774872 -0.08189594367979419 255 255 255
-0.10143240853114237 -0.09449999779462814 0.11171005677603307 255 255 255
0.07026382485505911 -0.09449999779462814 -0.0312718848114084 255 255 255
-0.27426357512047006 0.08900216844621762 0.09273195551788839 255 255 255
0.05585436544022116 -0.09449999779462814 0.07652994272887548 255 255 255
-0.20920275912199382 -0.07157699763774872 0.05051809768273009 255 255 255
-0.03833717774009319 0.015417867436087938 -0.056788842402744066 255 255 255
0.13011197245203726 0.09258899837732315 0.0097347705195108 255 255 255
0.18850555837996885 -0.09449999779462814 0.07911590935684187 255 255 255
0.02228869790466558 -0.08439938835545795 0.02158168788615139 255 255 255
-0.22895318266082976 -0.07157699763774872 -0.06773756396739222 255 255 255
-0.08933365608559396 -0.09449999779462814 0.0071295320244016275 255 255 255
-0.21977498046927185 -0.07157699763774872 -0.015345121108937765 255 255 255
-0.3056188328296344 0.09625600278377533 0.025019938881294335 255 255 255
-0.09452351583241558 0.09258899837732315 -0.01570258218474653 255 255 255
-0.11880108615186441 0.09258899837732315 0.07162961069982435 255 255 255
-0.030793048867481958 -0.019912453420259817 0.32421062350785895 255 255 255
-0.27842963872877013 -0.07157699763774872 0.0007141230620559547 255 255 255
