# .PCD v0.7 - Point Cloud Data file format
VERSION 0.7
FIELDS x y z r g b
SIZE 4 4 4 4 4 4
TYPE F F F F F F
COUNT 1 1 1 1 1 1
WIDTH 653
HEIGHT 1
POINTS 653
DATA ascii
0.08103292648571293 -0.07114229986004676 0.05852789836960552 255 255 255
0.09436637400445819 -0.16006813682287144 0.06785895773785197 255 255 255
0.06753478872508258 0.070280321914696 0.03010390055955893 255 255 255
0.2945021877644284 0.07577872912516033 0.03093338229516234 255 255 255
0.018230116389699836 -0.10167829429051876 0.08951985504453783 255 255 255
-0.0028784798117226697 -0.06376416535343982 0.38775350916403056 255 255 255
0.1419592349928779 0.07026824694595903 0.07037108464021642 255 255 255
0.09959657347329888 -0.1990491465002391 0.08381396083077992 255 255 255
-0.06123980883007219 -0.1692494873183653 0.05699063149752449 255 255 255
0.06919403726960854 -0.20796533654475174 -0.01339524945479897 255 255 255
-0.029911763235903253 -0.05857989216003107 0.3370013501964314 255 255 255
0.10460558176860607 0.08828271455411107 0.004858498546195036 255 255 255
0.2239226321397489 -0.09603535505003216 -0.07824970173496631 255 255 255
0.28446806430243116 0.09261983426940422 0.017433895899361868 255 255 255
0.00037063834522947994 0.004214653659964302 0.14115684206616472 255 255 255
-0.07811622444785002 -0.10124051484908698 0.11313646447173027 255 255 255
-0.06807341280486193 -0.1772996533076843 0.058635452621832014 255 255 255
0.021213575498274916 -0.06319019484450944 0.07045040711916724 255 255 255
0.2963129752527091 -0.09113379777535091 -0.028360536781520635 255 255 255
0.02442529228461349 -0.036115459850859954 0.31129009430628146 255 255 255
0.30603593412040075 0.10334387563403176 0.0005525206015590677 255 255 255
0.09122296619684335 -0.2030962750131799 -0.01695839609744275 255 255 255
0.2505468296992582 0.09587832216703102 0.05130651250774407 255 255 255
0.04569526880863631 -0.047707863547030556 -0.00035535621208082234 255 255 255
0.3039450308920155 0.08975013198530486 0.059713803791180645 255 255 255
0.20674180130571657 -0.07494857312603925 0.020497569397110116 255 255 255
-0.014786335949733033 -0.02712059405279977 0.3512870292625076 255 255 255
-0.022765245975922655 -0.017203417063854233 0.2800598237022318 255 255 255
-0.029646295680317788 -0.016146454473225397 0.25675113539089933 255 255 255
0.08355697970767945 0.07196482247144036 0.06774208295904079 255 255 255
0.06363496572482241 -0.03285952664690314 0.38949802390090654 255 255 255
-0.034569888162549293 -0.06734442070320096 0.0949276423170842 255 255 255
0.2593909374168165 0.09378570940966625 0.0796415435496147 255 255 255
0.08751754062401486 0.08802973210423956 0.0746116464150287 255 255 255
0.23698742717421786 -0.09452969276109024 0.10428295831498426 255 255 255
0.20010263345063367 -0.09015641238966235 0.0515408600295809 255 255 255
0.14001423192866938 0.08902259637051019 0.07056412841932674 255 255 255
0.1649320357614727 0.09323436413244425 0.0565586652791038 255 255 255
0.3532397567925491 -0.08862855199528859 0.04916121002787084 255 255 255
0.29367914266266126 -0.1037623303243091 0.08823373035805604 255 255 255
0.017158638482081833 -0.07958665178812492 0.03602440943013924 255 255 255
-0.005157746429555515 -0.01590373450145446 0.34930002737018284 255 255 255
0.31986780815630633 0.08008546728562922 -0.05881687354405397 255 255 255
0.2261879040626929 -0.09204093065005116 -0.010533238832792648 255 255 255
0.3233109022105448 0.09247022794688763 -0.03626407212274889 255 255 255
0.01610368672804246 -0.07694341373243782 0.051479630675776725 255 255 255
0.016997635489850945 -0.07577265183646338 0.110481473606138 255 255 255
0.061193061683648305 -0.0702631170856511 0.05416524324743681 255 255 255
0.003874464561832148 0.07930336865623207 0.0650534803297258 255 255 255
-0.04158133089602586 -0.03173901696351018 0.195510384690939 255 255 255
0.21580199190409283 -0.06484517965555432 -0.014027843526571005 255 255 255
0.06182213112551937 -0.09084061090071752 -0.03565971077422635 255 255 255
-0.00594342897354752 0.09970906367830579 0.05780411334477396 255 255 255
0.2978386021613024 -0.06798014146240239 -0.035843565592645864 255 255 255
0.15628165026720353 0.1071717852242489 0.05242287477581454 255 255 255
0.030133255675536284 -0.06678663185673044 0.19452191642919778 255 255 255
0.05945549050912644 0.09088619580009148 0.07774695037909521 255 255 255
0.20571019711613242 0.10185632377206134 -0.033952582149932874 255 255 255
0.06984320711035609 -0.08886561107022939 0.010089564592544566 255 255 255
0.19164534926278823 0.08491594456088786 0.08939767878433734 255 255 255
0.009533260402204095 -0.03232564460105539 0.36578933168608885 255 255 255
-0.020985650941480697 -0.00942212289106373 0.1833203143243007 255 255 255
0.046246632631255294 -0.008203842321826608 0.036178371383737494 255 255 255
-0.0016889806660071388 0.006003442464927059 0.37277110729448815 255 255 255
0.05380171952329857 -0.018887679993057727 -0.014554676442444478 255 255 255
0.19779552813821163 0.08621482306294437 -0.050427640393641185 255 255 255
-0.003375170485411335 -0.05876339110158808 0.33541396981042193 255 255 255
0.00011350998060929464 -0.07966534735936474 0.10910274084864666 255 255 255
0.15903689773227417 -0.06145665312579777 -0.05738885346625147 255 255 255
0.0004794971281174181 -0.008121274708003478 0.2933348409380725 255 255 255
0.13913883152746162 0.07576927916044614 0.06541365816673643 255 255 255
0.03292965240411019 0.002226388576330039 0.017545386125703052 255 255 255
0.3113999357465584 0.06733844480873316 -0.0517466184520581 255 255 255
0.31238583013544896 0.08123160022078542 -0.09938042778350313 255 255 255
0.09141030591156946 -0.1462707811574923 0.014299098002155015 255 255 255
0.2582345778307608 0.09378515590332112 0.004266469690212917 255 255 255
0.23088488789018025 -0.07818732543273663 -0.04312212553853597 255 255 255
0.04781122784414375 0.0910814870514696 0.01733063327073589 255 255 255
0.04858649234719778 -0.03476726716209281 0.39769538458630144 255 255 255
0.28550865124335845 0.09749769831874597 0.019474096408022886 255 255 255
0.0195354946397695 -0.06415144234294376 0.19883500792348394 255 255 255
0.26681477998321 -0.08969762492758987 -0.04782882646891742 255 255 255
0.2282205748517284 -0.06683990785285537 0.05334514918859341 255 255 255
0.24840672693226 0.09034432075901988 -0.10098919207234294 255 255 255
0.2311279912283264 0.09951900491851205 0.07965425635745288 255 255 255
0.01534872482515275 -0.012895570673908731 0.3261485236944106 255 255 255
0.20862113410971966 -0.09838380532978094 0.12332435064026186 255 255 255
0.049507924442361094 -0.06913927843149215 0.10374677118124644 255 255 255
-0.03678445758201377 -0.04348553111661693 0.4168977051186948 255 255 255
0.09207167436291906 -0.07186906384448402 0.005394441971286371 255 255 255
-0.015885754097128158 -0.052939333361625276 0.1984355380394302 255 255 255
0.32136204370226873 0.09965961455701344 -0.03471107429906585 255 255 255
-0.08168019774939733 -0.2211667711300034 0.08274861566154172 255 255 255
0.24851346667358082 0.08091575477901383 -0.04642304181209925 255 255 255
-0.07536274380788185 -0.10007828533690433 0.08995256952534046 255 255 255
0.169182851429009 0.10030984483990217 0.0648444662467959 255 255 255
-0.037393080784818025 -0.040093593996505215 0.3968567845899224 255 255 255
0.09025435450550125 -0.06999810700070887 0.10892936692983146 255 255 255
-0.01612539346368878 -0.0670320486197522 0.26722011345596436 255 255 255
0.020069732483643417 -0.07093100126217944 0.1455609111776152 255 255 255
0.1370169329443101 0.09694624958578403 0.01489939217188246 255 255 255
0.029891646506175398 -0.19414481197198163 0.04081453124579866 255 255 255
0.1857370809993173 0.10857371173400898 0.023636156862536346 255 255 255
-0.04720015941906875 -0.03084859163777074 0.32486755697174535 255 255 255
0.057509164379475106 -0.11728491010820517 0.0013472750433360468 255 255 255
-0.07737199786010486 -0.027403560215051793 0.3811048331750396 255 255 255
0.02184937694570652 -0.029675329944836976 0.2905259987344525 255 255 255
0.10400135164389354 -0.2053942000916352 0.0516682159466937 255 255 255
0.14852241779730666 0.09348207554959914 -0.0274048525218689 255 255 255
0.10337239558137039 -0.06591907675988522 -0.025148919500038187 255 255 255
0.15371311862897957 -0.07348075389616149 -0.055375176533141744 255 255 255
-0.010397335402228008 0.08005328433716495 0.07518652665299662 255 255 255
0.25188544478670516 -0.08623342685375258 0.054712330960832195 255 255 255
0.20047206082126512 -0.08302713186643826 0.06294400777112769 255 255 255
0.23514619099260972 0.0789816359962329 0.06746816066778172 255 255 255
0.24900171937991133 -0.10057301145679629 0.006500610677570601 255 255 255
0.11380406317595491 0.1193582766449375 0.040153323237381223 255 255 255
0.10678948445104171 -0.09422714722454892 0.09466914704265357 255 255 255
0.29159224870804923 0.07617688859733546 0.06338663021620045 255 255 255
0.1578251864970882 -0.08633517282303 0.058230949363469474 255 255 255
-0.0013856751418800908 0.009056218509915483 0.10757801835293478 255 255 255
-0.07197554546895463 -0.10398778801333364 0.06820330180282504 255 255 255
0.006739480206442751 0.08300603912939103 0.054869147797991 255 255 255
0.11737264173510754 -0.08399077023738274 -0.07853920032530544 255 255 255
0.13379983506488072 0.07266962140020261 -0.00601133775840682 255 255 255
0.33840142018609937 0.08610617160349285 0.09976178017590892 255 255 255
0.07582467732618565 -0.164378128254669 0.03123925455366464 255 255 255
-0.0070813721465950216 0.01654658766046443 0.3402125694137941 255 255 255
0.3019330260706739 -0.09276622635462321 0.06761198652314965 255 255 255
-0.039680510933106795 -0.06255639388385306 0.1440361256778832 255 255 255
-0.026468757081620484 -0.017512797908000116 0.3206768099059775 255 255 255
0.29178080136938644 0.09480478033478099 0.020135986771534397 255 255 255
0.027530197420483158 -0.059366836362875625 0.14272842411159575 255 255 255
0.08426895886652816 -0.18365689198622748 -0.017458485111083204 255 255 255
0.18683360548288686 0.08720806669309575 -0.012123386938910151 255 255 255
-0.009319614171029859 -0.040264399655969334 0.3413134888012392 255 255 255
0.017826527534940635 -0.061020805716068535 0.3623047861231356 255 255 255
0.10565224797480056 0.07286043102906514 0.0504557652482891 255 255 255
-0.05585212942075117 -0.036112699464998496 0.17073263685212003 255 255 255
0.07934125587333855 -0.16734698867642958 0.0647580623357558 255 255 255
0.09949295415798622 -0.0779668096154847 0.09100079535508597 255 255 255
-0.05548154857737791 -0.12539529679581407 0.04838664319713713 255 255 255
-0.03378724445601474 -0.18691389387619634 0.043484457796282475 255 255 255
0.13576570264737228 -0.07325176348820123 -0.021902539792929682 255 255 255
0.008210377154958544 0.08270630638214965 0.06573144350109562 255 255 255
0.052679585764665394 -0.06529128363840604 0.07693435596468116 255 255 255
0.003079542663606132 0.09217452314321826 0.08655599613994583 255 255 255
0.18802510739390915 -0.06720831452286455 0.09276137326358085 255 255 255
0.1873866342167962 0.09210312480013187 -0.08890705736607038 255 255 255
0.15510130466385783 -0.10205708450372984 0.08619514319775505 255 255 255
0.021473268773489648 -0.03671866784221681 0.36204045836407645 255 255 255
0.10649777694796196 -0.08020660362501097 -0.05665135916490234 255 255 255
-0.039855062024638684 -0.04165750751548987 0.315113288427356 255 255 255
0.3140647736024104 -0.09658309567463494 -0.06055519518954955 255 255 255
-0.049964110956383624 -0.05061550406104019 0.13491031585892557 255 255 255
0.03737435651531147 -0.06648073858773612 0.1222854741211976 255 255 255
-0.00017438041893814678 -0.0836987514778649 0.11958187707604398 255 255 255
-0.03568667893341127 -0.05630415173296102 0.268166455667909 255 255 255
0.25354695420145257 0.0821902322936594 -0.027295498181410405 255 255 255
0.23690725521878522 -0.08812467455179794 -0.02668216327515527 255 255 255
0.23356724640601034 -0.09777663405437834 0.12160517191521895 255 255 255
0.04901255181976672 -0.09148136245536038 0.07690086096791775 255 255 255
-0.04492845050235415 -0.04083304510762047 0.2727159304812202 255 255 255
0.020655347368110817 -0.06240033588919975 0.061648543225708494 255 255 255
0.14694098209499615 0.10105624393989204 -0.014113189578653387 255 255 255
0.012062487494431172 0.013975462534803093 0.06719422094552321 255 255 255
0.09369594520912965 -0.07841332912845893 -0.018115369784474988 255 255 255
0.22471480476617972 0.08194653635270172 -0.0949049343653138 255 255 255
0.0033385748138709034 0.08307026460219888 0.05183376105625632 255 255 255
0.30637901378113636 -0.09280740071256037 -0.022499733000781952 255 255 255
0.1623469199758613 -0.07510363192168776 0.0065685501977645125 255 255 255
-0.054492349463917567 -0.12193661697119504 0.05584871515719517 255 255 255
-0.05111594494615317 -0.033442709539373276 0.09558299084836475 255 255 255
0.13093025754249124 0.06871952297861131 -0.027921855673556522 255 255 255
0.33862933886946356 0.08974877773852193 -0.007905405433904304 255 255 255
0.3519189957824351 -0.06545968770158146 0.08850587165324382 255 255 255
-0.04346175424712451 -0.022311436953058025 0.15812707801632728 255 255 255
0.09848163862125488 -0.1919608917081906 0.04751671241599776 255 255 255
0.038595622513627165 -0.03422604584088561 0.05579467853922824 255 255 255
0.0068188300760531175 -0.03463372295023405 0.37378063231366687 255 255 255
-0.008407008506587831 -0.0016554488997773918 0.343505191671866 255 255 255
0.1306760371451647 0.08598833274694684 -0.044577342812147515 255 255 255
0.07445560442890838 -0.18912586234551718 0.019202076220943408 255 255 255
0.12933309463745377 -0.07646147790403918 0.00882230804309449 255 255 255
0.2387001457333542 -0.007004893861821386 -0.059630259488667986 255 255 255
0.20117318430141215 0.08534650371212345 -0.04446418572505298 255 255 255
0.03322401001504039 -0.019622456299134016 0.031127695252621844 255 255 255
0.015280321604487938 -0.05576390717582768 0.42748624347664216 255 255 255
0.04709770508038658 -0.04850508630388435 -0.01253939021680971 255 255 255
0.12648863470285357 0.0977920714376427 0.029871910023440335 255 255 255
0.2846693644281336 0.07570949021181755 0.062128618056887255 255 255 255
0.06820151926819837 -0.09389065377374933 0.031240381761006568 255 255 255
0.3369692132548779 0.07841910387933806 0.036563534016448844 255 255 255
0.16166573528951536 0.09190918146357235 0.07657797183976624 255 255 255
0.2042350614597111 -0.0628413709879436 0.03450801327679078 255 255 255
0.2847696705584637 -0.10149928466675977 0.10708987922983884 255 255 255
-0.008712742845197276 0.0129521590156624 0.3970756617318902 255 255 255
-0.039723339948324304 -0.09400706810454315 0.11734771576505307 255 255 255
0.1095898146910687 -0.055617891491066336 0.06978949820818382 255 255 255
-0.049528766588222785 -0.08840411127592043 0.08192154314834403 255 255 255
0.14632005306495602 -0.06941642000718021 0.1002705359434507 255 255 255
0.0844403919880069 -0.07299001319102195 -0.019153333089502313 255 255 255
0.07614484544304319 0.09319307473162451 0.0481991301508349 255 255 255
0.1495864758982452 -0.07476411840968042 0.07329226915987452 255 255 255
0.086902516928668 0.0986105347709447 0.029212152976013765 255 255 255
-0.026402739753951916 -0.054944934756581444 0.37434087487060985 255 255 255
-0.05141027371126052 -0.025318884781816674 0.12134551614843757 255 255 255
-0.03780422772881945 0.07561635845481454 0.08193067982383793 255 255 255
-0.002139407232515187 -0.09256163841081182 0.01657216181828899 255 255 255
-0.05049203719421806 -0.02678582120141227 0.162064726075812 255 255 255
0.031679109878969026 -0.025930036174912876 0.35913657832723156 255 255 255
0.10815960515644145 0.06836184081540223 7.13324383415561e-05 255 255 255
0.04031094529985055 -0.10253631476131275 0.016518251285070323 255 255 255
0.04406590756292264 -0.07081853268188605 0.09897208655636923 255 255 255
-0.10750211014840098 -0.09545856891786039 0.09277711780035698 255 255 255
0.10318717172672169 -0.07770739682476867 0.009865813413538491 255 255 255
0.1289536283777581 0.08036240572654475 0.05594245460986368 255 255 255
-0.002303953208828836 -0.06886425428383117 0.2906604310903333 255 255 255
0.03522129374150629 -0.07298953852273554 0.04519937125822227 255 255 255
0.10051766367681889 0.09311809667780158 -0.02914943075277333 255 255 255
0.16738546117932243 0.0813878579641508 -0.022082884043326166 255 255 255
0.03954235004256078 -0.021277571244447832 -0.007532609286948306 255 255 255
0.30811644585175735 -0.09121165091174246 0.009652065673072724 255 255 255
-0.019517595949670313 -0.01380876467551857 0.3565306572643798 255 255 255
0.08408589447373563 0.0849595421611029 0.06767193054116034 255 255 255
0.04182180203261482 -0.07786909060730811 0.05064892812671133 255 255 255
0.11941895873331658 -0.06598002241977043 0.07067866391375388 255 255 255
0.2663453747470918 -0.09830146927227759 0.0608174297107488 255 255 255
-0.08982163606038822 -0.03488642837789301 0.4019858294055709 255 255 255
-0.004525637454389154 0.00041123489628934126 0.3575433307979693 255 255 255
-0.0010499370840598519 0.01359170249263298 0.07553400765701163 255 255 255
-0.002334481099813948 -0.01753023168030468 0.37016597623698205 255 255 255
0.20210814353561882 -0.07162723536797765 -0.04605196305892177 255 255 255
0.07140197266795356 -0.07141700298406842 0.05577279960373973 255 255 255
0.050957965947828435 -0.02344362880005955 0.3747161960891411 255 255 255
0.20293158140273845 0.09614430656104461 -0.015755955338123157 255 255 255
0.03984730756559291 -0.02933805479802964 0.09642957854401507 255 255 255
0.2561281035534383 0.09292500687590373 -0.09076571233285582 255 255 255
0.05318896358671277 -0.015478526596361114 0.014945887365244824 255 255 255
-0.01974982514290236 0.005037444768248137 0.12073153697430887 255 255 255
0.1656198058064811 0.097481910494796 -0.024302571305379744 255 255 255
0.021441991773075392 -0.07247308374981191 0.18346599767593696 255 255 255
0.11981631746774257 0.0963748447760243 -0.0035639198822101474 255 255 255
0.00793591998394999 -0.09852643891979329 0.02291261236796457 255 255 255
0.27566792407624 0.09184759114432445 -0.05588619430161395 255 255 255
0.06328168755359613 -0.09135878141448271 0.011848703296302325 255 255 255
0.334208116630738 -0.08985811339612287 0.11241372523709442 255 255 255
0.15813985035450195 0.07740561912202153 -0.06068373885124306 255 255 255
0.26865764089977556 0.07204110021852383 -0.011234241452327477 255 255 255
-0.048094454471850345 -0.007938751910692744 0.14804745192516672 255 255 255
-0.08757022182541936 -0.07423361272756068 0.12700146228935144 255 255 255
0.2487057667844336 0.06650813333338751 -0.046885822369977986 255 255 255
0.3039651098625564 -0.10500550360061232 0.009625195844722692 255 255 255
-0.04169945538567073 -0.023431316858465417 0.13290640639423787 255 255 255
-0.03054756859465358 -0.04033599627929963 0.2599132219835046 255 255 255
-0.003975400629468426 -0.03467296307108612 0.4086038236415937 255 255 255
0.35154581953059616 0.0853911611698157 0.0543966592407674 255 255 255
0.07729070853070537 -0.1595165860296358 -0.003529959048010665 255 255 255
0.07906988181342245 -0.05939365921908403 0.069904468347301 255 255 255
0.2619584680630551 -0.06848115178824818 -0.020648978340672194 255 255 255
0.0727780139358666 -0.1474167351833304 -0.00552528427765348 255 255 255
0.06265198193225163 0.08909166156909282 0.01111512624009543 255 255 255
0.03213398463053311 0.10268877514850033 0.03255609883689037 255 255 255
0.09128037978195205 0.09856548176523831 -0.008513722619900629 255 255 255
0.07199969535681239 -0.23570813455343173 0.03225417771301731 255 255 255
-0.027844705860375386 -0.018449443613433 0.2821775143399281 255 255 255
0.1260425432335248 -0.0676280986784446 -0.04413944933338317 255 255 255
0.09850256044785045 -0.09426773821944659 0.011123676253677156 255 255 255
-0.0038967053764887597 -0.036592579899291724 0.3266015006887153 255 255 255
0.3125696437618948 -0.0810175046820627 0.11203360360229789 255 255 255
0.2977687296927771 0.08912239053304355 0.053002949070044894 255 255 255
0.04106149097398351 -0.08670293732295858 -0.015047009512259459 255 255 255
0.21091674265276575 0.0930036455761727 0.06355975898156332 255 255 255
0.30732555372102854 0.07264871949648229 -0.048902655372529816 255 255 255
-0.0991644800718034 -0.03302473552202877 0.405707566202629 255 255 255
0.09135371136578624 0.07725477178467087 0.04494965642518905 255 255 255
0.10165441220707327 -0.07678499556178069 0.05382600985572222 255 255 255
0.0627737610526451 -0.0701566889532723 0.08738714610005079 255 255 255
0.11057027830882708 -0.18507533616982855 0.06272676126831675 255 255 255
0.272137362687449 -0.10557246770214267 0.04633758503464167 255 255 255
0.12454643267226123 -0.07128676679187308 -0.020052337118257494 255 255 255
0.16184013735479605 0.08539102682205962 -0.07415268557966084 255 255 255
-0.019174278211890133 -0.07329198543267798 0.2752644804449724 255 255 255
-0.1148264465302246 -0.08687397261661238 0.10101725569037491 255 255 255
0.30377725230514613 -0.06569341369612058 -0.00912528966416275 255 255 255
0.26029546033172213 0.0725662604196403 0.030154684448881287 255 255 255
0.21709215735519202 0.0913917511892526 -0.020447586094047683 255 255 255
-0.12119911382751321 -0.08588380555245166 0.10163373897167446 255 255 255
0.012581149626301372 -0.03929780337293412 0.36498842945216714 255 255 255
0.18864918364521985 0.06590463718125986 -0.07716542892050067 255 255 255
0.00014239059640523666 0.09124555346554246 0.07867548104459271 255 255 255
0.21313312012279684 -0.06075652169887064 -0.01698078375578884 255 255 255
0.29559110795450505 0.09631832760684907 0.09319713056247178 255 255 255
-0.06982196546563925 -0.17889902814689107 0.08048869917575147 255 255 255
0.092548418146734 -0.19985029220416822 0.07477264429299532 255 255 255
0.048906755796018664 -0.033151119509053154 0.3943067088365778 255 255 255
0.10748931788359642 -0.07166423034057597 -0.0646028125841108 255 255 255
-0.08349202127981749 -0.08904248928440582 0.13201569252748935 255 255 255
0.3378038133113948 -0.08102601295336836 0.09157938788520241 255 255 255
0.26007382209742996 0.08858383508856407 -0.028186238592344873 255 255 255
0.15977641954602828 0.07714492011603294 0.005375024584842187 255 255 255
0.21004621498329668 -0.08793178721427651 -0.024944960916162946 255 255 255
-0.013253304187634523 -0.0727214776862218 0.08638152164370674 255 255 255
0.18903288891912548 0.08458221837978924 -0.08552428648161098 255 255 255
0.007795684203033686 -0.009464062063886029 0.21899260361110037 255 255 255
-0.0797613969055469 -0.036457015927534336 0.38268921222840563 255 255 255
-0.05354044996516297 -0.18142876619574616 0.06726295758041494 255 255 255
0.07272263617261779 0.08602239782098932 -0.002724603594537913 255 255 255
0.3331336658733935 0.08931965378873633 0.05731738652012397 255 255 255
0.016359464585284193 -0.055815010413688686 0.3804154911244039 255 255 255
-0.06724592446177856 -0.09265838602396714 0.11875696944193913 255 255 255
0.12112359341675195 0.08779439417694938 0.08961198808689666 255 255 255
0.22562621219221696 0.0824284028753309 -0.07708666970736819 255 255 255
0.233219643507648 0.08621623698747477 -0.028202092748364615 255 255 255
-0.007326507357742779 -0.02889402581339363 0.34452884464836137 255 255 255
0.23337555807638377 -0.08685163696584731 0.1191021675087882 255 255 255
0.0258563450540492 -0.05827798154017475 0.3759881417224002 255 255 255
0.21302957432800648 0.09412023779937068 -0.0013433088405568985 255 255 255
0.017069109684260765 -0.03489285450568335 0.31226349082776855 255 255 255
0.07873919996972924 -0.08872382870232794 -0.018967775621333255 255 255 255
0.1860559630434911 0.09833508952855408 0.007917151295774255 255 255 255
0.19454146802671246 -0.07843752266572265 0.11157486500927159 255 255 255
0.24678861509076072 -0.017417990279335795 0.034996276673835605 255 255 255
0.007669329888464296 -0.09865512621122641 0.04743992280486455 255 255 255
0.017797268483395405 0.08022259665054092 0.03803333390131453 255 255 255
0.09766068416580814 0.07962336063323011 -0.01588110349414204 255 255 255
0.2780844215666762 0.09384048084793646 -0.07118932876046126 255 255 255
0.00213240243973153 2.2438977735335028e-05 0.17187160174494195 255 255 255
0.12369504491436992 0.09588782045193252 0.05459660435112902 255 255 255
0.10118540582015056 -0.19291138494504267 0.023511134901408326 255 255 255
0.28808884369589505 0.08362105636281811 0.029022225158371 255 255 255
0.05163774841040116 -0.1874548175084188 0.03671838591080061 255 255 255
0.302698130793833 -0.0661934176903454 0.09784172230437764 255 255 255
0.25666286206616723 0.07399478805362873 0.049888937112165174 255 255 255
-0.035700561350250695 -0.06245959859872161 0.1369012590432535 255 255 255
-0.020004263202056664 -0.012836001932854236 0.24514114287367791 255 255 255
0.20416239760587515 0.0815791498814593 0.057655080009619566 255 255 255
0.07502183032922674 -0.13577599045524225 0.036053964389868555 255 255 255
0.29077149339943975 -0.0844940128624998 0.05975181981294345 255 255 255
0.18602065809530197 -0.07657739632162595 0.1259707060830025 255 255 255
-0.015407348026734397 -0.03527506596930977 0.3908120946439245 255 255 255
0.21622381827136097 0.08501392463589917 -0.0557127743892747 255 255 255
-0.013962158385164366 -0.07233948959000003 0.15958944338683342 255 255 255
0.059527740422510654 -0.0767671347407574 -0.012373902388760212 255 255 255
0.28670106964107206 0.09652014136565279 0.07338010476493527 255 255 255
0.06693540255790963 -0.07167019769777884 0.03224824930872533 255 255 255
0.02922830807361834 -0.05708663325327188 0.20416231996748296 255 255 255
0.16417854653889857 -0.06455241073223911 -0.07214291029903638 255 255 255
0.04845957039164448 -0.19236814093874735 0.04338479121123598 255 255 255
0.07022246228416182 -0.09718210558345347 -0.015084677028463314 255 255 255
0.03951007882429215 -0.05916392038497665 0.015652221759153165 255 255 255
0.12236597730886141 0.09601498183953153 0.06671050366926545 255 255 255
0.19060207384648933 0.09629886567867599 -0.06226126891530639 255 255 255
0.19313706341450285 0.09714472709694996 0.011240238890754758 255 255 255
0.31641131345649165 -0.09071757172819778 0.06555311015460483 255 255 255
0.09274252686627273 -0.15856484151197806 -0.02157534861426593 255 255 255
-0.06397323768099769 -0.02085936515583515 0.0836237943763175 255 255 255
0.334730542873382 0.07239065462230182 0.012436775140110552 255 255 255
-0.029138221975610078 -0.0959781525047819 0.07277034528143309 255 255 255
0.33626821039029187 -0.08159461053858404 -0.025803636484985473 255 255 255
-0.0340167603777444 -0.20852970404359755 0.046164670244097275 255 255 255
0.2261594065637339 0.10539197252779037 0.06494373144487661 255 255 255
0.0735745363237596 -0.17704302449293993 -0.016436956634262163 255 255 255
0.03876150336041441 -0.05868454466837277 0.07348141485979919 255 255 255
-0.013019544226689925 -0.08088592790127012 0.06211451265177857 255 255 255
0.01137982216445637 -0.061336816310831495 0.01078396459487806 255 255 255
0.30198478311563753 0.08413844191724903 0.023739024384930384 255 255 255
0.0013323018457057504 0.0024506981720676907 0.22717411650418554 255 255 255
0.3238897263438414 0.08128914972769727 -0.037939094154730305 255 255 255
0.059075263323975516 -0.024013533361502082 0.367016497697023 255 255 255
0.08095939032820915 -0.149644176110043 0.056147850985377265 255 255 255
0.3316032948938639 0.09470075151539437 0.02377810284925668 255 255 255
0.3087071066045015 0.07669156375834732 0.043085023018901394 255 255 255
0.005962713574704416 -0.10019501220332552 0.012879924815922464 255 255 255
0.28622412072199216 -0.07924997398493329 0.10155952014409174 255 255 255
0.3088841649791585 -0.0865339730397291 0.08737259885070454 255 255 255
0.2494002528338103 -0.07815047926853234 0.06866997242924262 255 255 255
0.17371295128680966 0.07841317733206458 0.04736098939617797 255 255 255
0.15870605226503232 0.08787050952840392 -0.07032319905202795 255 255 255
0.26534977916751357 0.09446732879390796 -0.03882907520615856 255 255 255
-0.03416573475873625 -0.05666676332438905 0.12483618279778 255 255 255
0.0005203677682767043 -0.07171190596506044 0.1802489005448556 255 255 255
0.2154539283405004 -0.07657995317419891 0.037008414657992365 255 255 255
0.33925458411057036 0.0771054306458115 0.013753006841927668 255 255 255
0.0368736443804692 -0.0957948033224 0.0903710714252991 255 255 255
0.23191931848487313 0.07490599894210417 0.07956470092987838 255 255 255
-0.006759291966290319 -0.0846245353146844 0.032478404172826776 255 255 255
-0.02077788398708854 -0.0772211601234725 0.1144541963667792 255 255 255
0.009732197846540643 -0.022063088895626214 0.3636138058014883 255 255 255
0.30408677179043925 0.06609671759996535 0.019722011792516772 255 255 255
-0.0042042110186886 0.07209679146824965 0.05897723764184206 255 255 255
0.3569502498177362 -0.08471720272519923 0.11285004268473045 255 255 255
0.1936820468012906 0.09848906032256628 -0.09242999185200787 255 255 255
-0.015617347761068545 -0.08693755182978774 0.03507617842390758 255 255 255
0.034965404174451806 0.08879550480684713 0.06353448820969296 255 255 255
-0.0336380145898717 0.0038240745855231545 0.19639814887576193 255 255 255
-0.010009375684214448 -0.0012778465345767275 0.3440138221822219 255 255 255
0.27938306896928583 0.0846706557484174 -0.095453481789328 255 255 255
0.29520825615511087 0.0885108820166576 -0.0718655179738607 255 255 255
0.14182670682857373 -0.0942328115055455 0.0654687759357116 255 255 255
0.236601162392597 -0.10624422325166871 -0.04415301489380775 255 255 255
-0.06598424969141839 -0.20203690912499167 0.10467539716838793 255 255 255
0.14375171945930026 -0.09208656581732186 0.07177775080760132 255 255 255
0.3162362159709888 0.06343353021489047 -0.0658657802329787 255 255 255
0.019153972257222516 -0.032715219932402506 0.33510401681596325 255 255 255
0.2804011537702498 0.07110515116194219 -0.008293651160719605 255 255 255
0.06731493927691388 -0.0983434161291427 0.064163381660114 255 255 255
0.16770958775003253 -0.08731087873599751 0.11107940435100476 255 255 255
0.23983710011972703 0.09771072587983363 -0.08375359902877982 255 255 255
0.09251964831844402 -0.21835560521266043 0.025491691683167443 255 255 255
0.35024093305359716 0.08276920104984742 0.0394050865385652 255 255 255
0.2123112614062798 0.08778168206637056 -0.06828548588936724 255 255 255
0.06821773035734012 -0.09408474289218983 0.03376620867061456 255 255 255
0.1991575484113979 -0.0760224961788669 -0.09276675223306377 255 255 255
0.1575191868496481 -0.06979994852128063 -0.042050667365205394 255 255 255
0.06516522537501086 -0.07573579124692068 0.0225905214362579 255 255 255
0.329061355132215 -0.06264211121611114 -0.009723635344778044 255 255 255
0.286892831285413 -0.09735512621262978 0.07093917499272273 255 255 255
0.17964078167493003 -0.07952829513686904 0.026687181067262134 255 255 255
0.24180747233743866 -0.06898503023641127 -0.0276181534984326 255 255 255
0.29951195417234416 -0.09889116282052501 -0.07668986387995116 255 255 255
-0.07457705389033403 -0.2181008484023487 0.09318208664277292 255 255 255
0.15327308944635457 0.08843250296986878 -0.06144982760506158 255 255 255
0.02635081541190482 -0.08740218390029364 0.04485562447488947 255 255 255
0.006281702768196352 -0.014505784530424655 0.3180453673503331 255 255 255
0.06341520660038871 -0.025316285354743808 0.36510566499306246 255 255 255
0.0729008101933558 -0.1715481452922203 0.02635321715759357 255 255 255
0.03784924800825945 -0.03365276358836255 0.4085230484187752 255 255 255
0.16176839379213664 -0.07876970418034561 -0.09180503971985583 255 255 255
0.20026970259396193 -0.09777604464714666 0.013354839833818377 255 255 255
0.04521867042505223 -0.08166897607148012 0.07109743201441002 255 255 255
0.335329550500603 -0.06089186275131622 0.046497084759336664 255 255 255
0.278403467064143 0.0853027731494275 0.08744398791118664 255 255 255
0.009269156704747166 -0.08711151544364187 0.05145260783190535 255 255 255
0.25012488380316045 0.07751614710715075 0.02308019189978671 255 255 255
0.34639573112642774 -0.0696032556785846 0.042624769060224006 255 255 255
0.08169990868758353 -0.07328638527453177 0.02359402763563717 255 255 255
0.25806706602532126 0.09587009411017734 0.01814859662972075 255 255 255
-0.0004694799397730485 0.0011425270361946427 0.14335631078469402 255 255 255
0.028554510631458724 -0.00855929812085074 0.1660767879746547 255 255 255
-0.05860918891742663 -0.024059229907426875 0.3601665803761222 255 255 255
0.16631139729872824 -0.1006137317634185 -0.02134397470994636 255 255 255
-0.1260302465169862 -0.07435804718886162 0.1101113517361426 255 255 255
0.05402652243601812 -0.034362842002635986 0.008250336505049695 255 255 255
-0.05732258497702696 -0.027692950239717434 0.15198756370842142 255 255 255
-0.01728305394315957 0.010413345873692 0.10496196473078169 255 255 255
0.27030300483400926 -0.0744122310532323 0.010127851041007375 255 255 255
0.13294534956929624 0.10722282153145334 0.029128472897861635 255 255 255
-0.02063819870551875 -0.09075250969569422 0.08134475800966491 255 255 255
0.08934675009364394 -0.14204884593171396 0.01310258158236615 255 255 255
0.2577982278270909 -0.06961505713874638 0.12255627999002863 255 255 255
0.192798985486231 0.09320127251798692 -0.008870310468862472 255 255 255
0.08075030359702441 -0.07794993003187262 0.11162453160019022 255 255 255
0.27203350321101655 0.07645601723997508 -0.048607698719433046 255 255 255
0.198938879520484 -0.08515304775699561 -0.002473168132056052 255 255 255
0.08131542340893289 -0.0699895462883686 0.020398616299842645 255 255 255
0.2571145001495814 0.09655420848224473 -0.04837406869160522 255 255 255
0.0028018958701329835 0.010301142067992652 0.07449885957341794 255 255 255
0.14753634036599414 -0.06825375679561412 -0.09046978854475926 255 255 255
0.2303308415760018 -0.08560092281198091 0.028047477763150634 255 255 255
0.2794505669201451 -0.07544973443581827 0.04354925140913416 255 255 255
0.0339933061960578 -0.0716132701023916 0.16479105384767714 255 255 255
0.051803005589936175 -0.06886214748157228 -0.012005966221668371 255 255 255
0.27720729179803794 0.08544029382071039 -0.0877516957917709 255 255 255
-0.07327104425866399 -0.08800282995218754 0.12014210096256851 255 255 255
0.07091013488861428 -0.16473397125297437 -0.011126093700437933 255 255 255
0.07965015647455453 -0.0771926011966124 -0.0411062089626376 255 255 255
-0.028185061436092427 -0.08450860514045463 0.08143365705586281 255 255 255
0.014820000264708876 -0.08433392856817881 0.12555773529367542 255 255 255
0.062450554162698346 -0.09803100940147087 0.08246459036624403 255 255 255
0.008714996610014163 -0.08722615922414471 0.09143919850919434 255 255 255
-0.005402285697753572 -0.0007175955704016024 0.22789893453853252 255 255 255
0.09876150341611857 -0.06860138588874075 0.013558671612559317 255 255 255
-0.06725015793223255 -0.1609821152976749 0.0717283098682772 255 255 255
-0.03450718732897792 0.07874348639087328 0.09165488601075733 255 255 255
0.31663935996457876 -0.06669249973971011 0.06086220455045116 255 255 255
0.004041998230799396 -0.011456139193598612 0.2046197328534332 255 255 255
0.003877026121312168 0.007231058844745747 0.22676645110754026 255 255 255
0.0436810425434562 -0.03160591967296853 0.21048521996110572 255 255 255
0.06919135074463027 -0.0956923310057645 0.011373106954783302 255 255 255
-0.08167894265619244 -0.09209123063981133 0.09480287846277974 255 255 255
-0.054547451915651794 -0.034842577353233185 0.3453094940347643 255 255 255
-0.006452923699999866 0.092507130156918 0.06645407396410725 255 255 255
0.3040525896252279 -0.07465971399297877 0.04626188374492314 255 255 255
-0.054173198148687526 -0.04866194866916771 0.05751447967300123 255 255 255
0.09102542126859679 -0.10848387117509858 -0.036691297210276634 255 255 255
0.011793106028815567 0.07470169311705999 0.06847326554706334 255 255 255
0.3076090381321465 -0.08501765908305138 0.11581716974964602 255 255 255
0.03963003199324885 -0.014643355559986911 0.14036036316625708 255 255 255
0.24039914697874393 0.09476628968280768 -0.10340839988832265 255 255 255
0.32155746858041956 0.0917095644705498 -0.10101014208647438 255 255 255
0.25677532849476786 0.07977587940197267 -0.0978161961197044 255 255 255
0.24316304177840986 -0.0824681041965157 -0.00030129399702449357 255 255 255
0.08190724942039526 -0.138273607210387 0.049390091286631604 255 255 255
0.27634391278369935 -0.08617310196024965 0.0667366588656523 255 255 255
0.0666825223812059 -0.22840654747910172 0.021079451232903848 255 255 255
0.23683220220255208 0.0787416641769713 -0.06529743962202221 255 255 255
0.19322292161775817 -0.10025535936304573 0.04811116064262304 255 255 255
0.09472160645058753 -0.07461560956913366 -0.03441590229388079 255 255 255
0.22291271832300585 0.09211263496954546 0.021987607964936696 255 255 255
0.2835586839061349 -0.09933983715231284 -0.0163085709517004 255 255 255
0.1219794057569548 -0.07081004478933307 -0.05659355339054667 255 255 255
0.35448446750073925 -0.09211413915965619 0.05296125298185182 255 255 255
-0.06295945061342224 -0.24010009586698633 0.051281821618979595 255 255 255
-0.01759260123491618 -0.04720862372634113 0.40320615959469264 255 255 255
0.0017948686400414986 0.004426154929274425 0.055797682368610935 255 255 255
0.14698904850717778 0.0893500065074521 0.06820298653285929 255 255 255
0.3409271230716842 -0.08588135990778784 0.05541522788540185 255 255 255
-0.06711250914695584 -0.17609563003004436 0.061737334395565724 255 255 255
0.22542571587697982 0.08164680849984197 -0.05227985055779188 255 255 255
0.2990740230087278 0.09551891104538372 0.061501674207259854 255 255 255
0.20369174490374176 -0.10690541006145893 0.08278576619707351 255 255 255
0.32263866468853086 -0.09237237179461169 0.00876860425658053 255 255 255
0.06496997467011048 -0.09397656756551966 0.0633992056568362 255 255 255
0.33321578304956767 -0.07251710959644012 -0.04020175351688124 255 255 255
0.09273373852184033 -0.20638890558714001 0.05255126736736868 255 255 255
0.08713247718176438 -0.0694387263695879 0.13113465223278264 255 255 255
0.304069019126413 0.08091976266994094 0.006785580247627665 255 255 255
0.035389077378668525 0.09514041100565412 0.05804717257198911 255 255 255
-0.055847428300322896 -0.15388167278045708 0.05821702038857728 255 255 255
0.04875183251782813 -0.19764980984729907 0.03277178376868156 255 255 255
0.33310116473843104 -0.08498963234629187 0.019258469060871346 255 255 255
0.15956439842889208 0.10244774127404978 -0.06423752270610864 255 255 255
0.1320739368388345 0.09841902550589317 -0.016690910577130357 255 255 255
0.2040428964728746 0.10699745122251166 0.055147588302133184 255 255 255
0.30360174830904113 -0.06462953214409822 -0.07154125808659811 255 255 255
0.17741513278864826 -0.0913171718639955 0.06340356072848535 255 255 255
0.07283404773552167 -0.19648216498068566 -0.017666013392786957 255 255 255
-0.06542517164328707 -0.10347666542858461 0.06845466724572864 255 255 255
0.2523612359651267 -0.06633122619833161 -0.011372316315713685 255 255 255
0.09895676292544335 0.09628762638157354 0.07933700210027175 255 255 255
0.23381685460487628 -0.08655524709746107 0.06418311154018759 255 255 255
0.29029157521723414 -0.08376905238715371 0.04475086457622076 255 255 255
0.1796607607351019 0.09460313463490917 -0.028033631115141747 255 255 255
0.18355866143376917 0.09470182748281204 0.07064221455313167 255 255 255
0.0032741550885261915 0.019436375680467473 0.36022095871458 255 255 255
0.27526540992788373 0.09664461080513706 0.0063584041285299694 255 255 255
-0.05183003440860983 -0.09757791094845511 0.07788289120074107 255 255 255
0.3345066158836339 0.09803360428241516 -0.008294053220075858 255 255 255
0.04481762921867743 0.1069273503144127 0.0710341258942409 255 255 255
0.188465207103106 -0.06650027058942282 0.0015464094830308266 255 255 255
-0.08331869636739896 -0.08460592780771618 0.07270246745803303 255 255 255
0.11387075129132523 -0.10084777475282682 0.030955705846736268 255 255 255
0.018653608818759097 -0.03590176125406629 0.2996791511977425 255 255 255
0.17187048652629908 0.10098155070327926 -0.061266805417760244 255 255 255
0.024486878734581975 -0.026121941568958817 0.34570430139195946 255 255 255
0.07281934638778818 -0.07518427115941016 -0.01597414215656077 255 255 255
0.011152249577168087 -0.07722473441648117 0.01739009786201308 255 255 255
-0.008429543361763662 -0.0029898327116160937 0.18400108608880245 255 255 255
0.21282140407042482 0.07861440425606422 -0.05842708078086483 255 255 255
-0.04625153114567135 -0.03795668497218509 0.09462029756795565 255 255 255
-0.022697605456917853 0.010599017562660998 0.06641261838919603 255 255 255
0.010665656744745653 -0.06754768237880827 0.008287161837119309 255 255 255
0.2670705457982441 0.10245204881682754 -0.05327826551604295 255 255 255
0.28911315663934006 -0.09329410836184342 -0.04769575652150877 255 255 255
0.29132661581505837 -0.10279207315859092 0.08649961456601786 255 255 255
-0.0329544382246849 -0.04287255595183791 0.3376404812907336 255 255 255
-0.03735999793706534 -0.07727070096238772 0.12294142217359764 255 255 255
0.20230578491836132 -0.10299915603401509 -0.081548229494555 255 255 255
0.01679390387801198 -0.04854947718014734 0.25038856360461814 255 255 255
0.037414482415432736 -0.05765412358280724 0.07019820908575983 255 255 255
-0.11168053618390854 -0.07017958204928078 0.10451077114975597 255 255 255
-0.02858268965742213 -0.04433742557370821 0.41508130607765675 255 255 255
0.13583154834652275 0.09150030417304728 -0.05803796179221615 255 255 255
0.23805262230954663 0.0952663408712075 0.0020347098624893946 255 255 255
0.15806130115596778 0.0899616540895428 -0.014198165311258684 255 255 255
0.08461402003857234 -0.02867350361422151 0.4181860473065383 255 255 255
0.25116399369606884 0.07021752734805894 -0.11861033031074435 255 255 255
0.01724540364605527 -0.04745075576002996 0.33941337960653317 255 255 255
-0.017104683945935593 -0.0944748207562151 0.04150366125184152 255 255 255
0.17304655008027717 -0.09304582077712696 0.006908700715293157 255 255 255
0.2960530765550739 -0.06310196883145591 0.06267748909791322 255 255 255
0.23061730333689193 -0.062712967473241 -0.040261278488732774 255 255 255
0.050689108236766596 -0.02755799385805727 -0.014511059176583619 255 255 255
0.23517311583748807 -0.08421282136867944 0.1250168484640941 255 255 255
0.1727796309831134 0.09117184757647115 0.02171851827367555 255 255 255
-0.08620704068963624 -0.17425661256204217 0.08491853163245094 255 255 255
0.17154804174751936 -0.06612610070325195 0.02131794864839375 255 255 255
0.16725067281867445 0.08777801324477406 0.05024047089068039 255 255 255
0.2288789860741474 -0.06764618362109331 0.04536418929082716 255 255 255
-0.01077697069126078 -0.009940283264116471 0.3579638637373363 255 255 255
0.020107637371727535 0.014436060196238776 0.05760321637462262 255 255 255
0.012873703270855134 -0.0859827246192417 0.05470928742847559 255 255 255
0.026020415692046252 -0.1767370289658371 0.04530501056809378 255 255 255
0.33306511063054056 0.10296779209649222 -0.0008051924786359791 255 255 255
0.22196121943259728 0.06777572667397437 -0.07203173906327787 255 255 255
-0.02279728664106089 -0.06958446236263253 0.07491861317228442 255 255 255
0.08217801780295529 -0.20231804318148072 0.09418017657328363 255 255 255
0.2222756228711607 0.08432180051579494 0.0785154873446527 255 255 255
0.29716842300660706 0.07690027511989819 0.0933867511706293 255 255 255
-0.012579458974189049 -0.10253829864694225 0.08768096785930235 255 255 255
0.2780584585744099 0.09877464540617384 0.06482959305046468 255 255 255
0.22764325790168344 0.07277711264605623 -0.08714290255108799 255 255 255
0.26091120476646806 -0.10621801773514844 -0.017397795860496487 255 255 255
0.2539907983016798 0.0920107191771989 -0.06552158292277722 255 255 255
-0.015978805870022414 -0.17920728642568098 0.04301661171916904 255 255 255
0.0864089772879956 -0.16620679570783983 0.053503090580404936 255 255 255
0.2969478385943532 0.0700622197985182 -0.08934123015928884 255 255 255
0.0007790912277110835 -0.05006590343519274 0.42688672186995275 255 255 255
0.1854648220076291 0.07479094083815505 0.08204599555649612 255 255 255
-0.060084607846390366 -0.19440353814475206 0.08369736575667674 255 255 255
0.22780155977485889 -0.07771150345475511 0.11423282668300326 255 255 255
0.2342710767469821 -0.09038682404911136 -0.05239501752838023 255 255 255
0.2503061855362321 -0.06746221068311099 0.0936686204857484 255 255 255
0.15376808720225058 -0.0773763370194808 -0.08769313334707471 255 255 255
0.01144363547961852 -0.0513577658834832 0.37791546603582993 255 255 255
0.22355392731800822 0.09603223725541721 -0.09368516269220632 255 255 255
0.00825742003966871 -0.06501922127322124 0.3175626264532571 255 255 255
0.04080085182766418 -0.008359753412042693 0.03722051070459221 255 255 255
0.09944055823793066 -0.10438932204634216 0.09834278226652773 255 255 255
0.0927243540942282 -0.07639576464710791 0.025688776952579796 255 255 255
0.08556222948895353 -0.1715460123850267 -0.026818456281245566 255 255 255
0.020789813762400966 -0.07528831127191415 0.12471788696194672 255 255 255
0.014451620172954245 -0.003657168312105068 0.34873486093536027 255 255 255
0.27109625254480707 0.09470518237281217 0.013006611943606586 255 255 255
0.17727536612457837 -0.08168685802254091 -0.0438846022554381 255 255 255
0.2290392795526334 0.08269806077380412 0.011715265554515842 255 255 255
0.023843281781547786 -0.06849570394879677 0.16928223664569056 255 255 255
0.014615524560266376 -0.10370886115472708 0.015674815636547056 255 255 255
0.01689177781271247 -0.08567557003280982 0.08896902987648406 255 255 255
0.23912352205860612 0.08785003711450254 0.07634823282522064 255 255 255
0.22734992667433546 0.09445458891044085 0.04420818840318897 255 255 255
0.07560318367090327 -0.08238898589751908 0.037791627326121305 255 255 255
0.08599722537172101 -0.15639777260096396 -5.443531381808277e-05 255 255 255
0.20506647821148666 -0.07550996789437885 0.013044484092992862 255 255 255
-0.05241209816421119 0.07957238701489887 0.10320586985983486 255 255 255
-0.0654716019765869 -0.06500760756546409 0.09446951303215895 255 255 255
0.07214764300793973 -0.024036027044280615 0.378400824989198 255 255 255
0.103434882597425 -0.19848223666142237 0.0628032490555725 255 255 255
0.2702376337789098 0.09908384148050675 0.001194331599309988 255 255 255
0.00027288953303836096 -0.019525561545403445 0.3131277520127971 255 255 255
0.1571585139216993 -0.09301818179050639 -0.06254344618501623 255 255 255
0.1514908062787143 0.09946503343105664 0.01705828406079392 255 255 255
0.207653631987881 -0.09457598386223287 0.02547176994334713 255 255 255
0.03429487796302371 -0.003009080541739022 0.05700445930714453 255 255 255
-0.04597065005919081 -0.22093875385281675 0.04946429532782165 255 255 255
0.015175874007619791 -0.024624188963659407 0.29909422123197743 255 255 255
-0.008393771110695804 -0.058624464981391594 0.24992902565088057 255 255 255
0.04580191254774631 -0.07577798665992487 0.04109586593500079 255 255 255
0.022834260657538206 -0.010269088996466778 0.13879086341654148 255 255 255
0.0982631714390963 -0.07364132311045174 -0.0015312548950493464 255 255 255
0.028739518851667242 -0.03769922310654755 0.25404009350198653 255 255 255
0.25795813217173347 0.06671768355924847 -0.11441739934179783 255 255 255
0.2599323939639524 -0.05660049692487499 0.08235104963703561 255 255 255
-0.07350135028720205 -0.09548020418278691 0.12635162978846992 255 255 255
0.014757426410431802 -0.01233182262533819 0.2521217446156756 255 255 255
0.10988292207207634 0.06506002395718966 0.046679574280029716 255 255 255
0.2311913500909828 -0.08424853536957172 -0.02233774353997517 255 255 255
0.07736611284474182 0.08172043552033922 -0.007893020715103916 255 255 255
0.13377843610934181 0.09854368299695526 0.016262444553074355 255 255 255
0.09550330317050607 -0.060278813790670245 0.04786771811849634 255 255 255
-0.07571697116819703 -0.0817572116540523 0.08290376003763347 255 255 255
0.2487987824461733 0.09398396336498396 0.02031604268297515 255 255 255
