# .PCD v0.7 - Point Cloud Data file format
VERSION 0.7
FIELDS x y z r g b
SIZE 4 4 4 4 4 4
TYPE F F F F F F
COUNT 1 1 1 1 1 1
WIDTH 652
HEIGHT 1
POINTS 652
DATA ascii
0.308215841479169 -0.07157699763774872 0.10470319775272909 255 255 255
0.2708230854678344 -0.07157699763774872 0.09381162578360763 255 255 255
0.33487951262179905 -0.07157699763774872 0.0725978685618004 255 255 255
0.34937093786353157 -0.07157699763774872 0.07977341309021999 255 255 255
0.3482638898787389 -0.07157699763774872 0.07079725455891644 255 255 255
0.27975450362897514 -0.07157699763774872 0.11596466976353963 255 255 255
0.22298275831330117 -0.07157699763774872 0.10950970532257526 255 255 255
0.3359431168599708 -0.07157699763774872 0.0933230823056329 255 255 255
0.3117019724348534 -0.07157699763774872 0.10577235722706527 255 255 255
0.3372631795078225 -0.07157699763774872 0.1064363621114774 255 255 255
0.20565130497038434 -0.07157699763774872 0.11005088785238676 255 255 255
0.3568175128152623 -0.07157699763774872 0.11470329568772059 255 255 255
0.2740969853946327 -0.07157699763774872 0.09970697124396798 255 255 255
0.3114979328744741 -0.07157699763774872 0.11188561453875902 255 255 255
0.2746834695780491 -0.07157699763774872 0.11044914742692638 255 255 255
0.3011023163069285 -0.07157699763774872 0.11254445982925149 255 255 255
0.2334240564329444 -0.07157699763774872 0.10105443627686127 255 255 255
0.30441096000524204 -0.07157699763774872 0.08286010734207713 255 255 255
0.32202115379004154 -0.07157699763774872 0.0858650615194061 255 255 255
0.35950339764169725 -0.07157699763774872 0.09183161104861744 255 255 255
0.28328871230847275 -0.07157699763774872 -0.044500196722394164 255 255 255
0.2796838618038829 -0.07157699763774872 -0.033676696291220665 255 255 255
0.21762437856394737 -0.07157699763774872 0.051519767130739 255 255 255
0.1924387440727133 -0.07157699763774872 0.0835708344521662 255 255 255
0.271183766365903 -0.07157699763774872 -0.017083679481061792 255 255 255
0.26939037110583847 -0.07157699763774872 -0.02348858889446745 255 255 255
0.22174318323480782 -0.07157699763774872 0.048674190241810245 255 255 255
0.19932530867364076 -0.07157699763774872 0.0760951229430856 255 255 255
0.30264108030837067 -0.07157699763774872 -0.05559237952103383 255 255 255
0.26510368967019304 -0.07157699763774872 -0.023653814721476304 255 255 255
0.26448721882251175 -0.07157699763774872 -0.010189365479423881 255 255 255
0.2295664249013537 -0.07157699763774872 0.0372750029707684 255 255 255
0.1857636837953193 -0.07157699763774872 0.09542669196752987 255 255 255
0.29940259242299233 -0.07157699763774872 -0.05297174229789223 255 255 255
0.3109042451152288 -0.07157699763774872 -0.0670072689350416 255 255 255
0.3069227881531455 -0.07157699763774872 -0.07093254482233025 255 255 255
0.29128291255013555 -0.07157699763774872 -0.048792251532685675 255 255 255
0.2945075273796817 -0.08535727788209804 -0.0850476246440833 255 255 255
0.14783393393222607 -0.08272687280222966 -0.08332227993065248 255 255 255
0.2037647269417871 -0.08423385329555473 -0.08398020270849463 255 255 255
0.20722557922859605 -0.07660287402400187 -0.08402091326215778 255 255 255
0.23060331044454796 -0.08572367452969545 -0.08429590921758108 255 255 255
0.17715395124873579 -0.07727763993823625 -0.08366717593875951 255 255 255
0.18480065275676005 -0.0798775115626193 -0.08375712529986779 255 255 255
0.1260496767483176 -0.07374072142805835 -0.08306602826268106 255 255 255
0.2946586146201103 -0.07442455341988993 -0.08504940190722532 255 255 255
0.18026122744190118 -0.0835852329982065 -0.08370372732082522 255 255 255
0.15652395587151027 -0.07552005661124789 -0.08342450203525997 255 255 255
0.3006212427749482 -0.07934775067986309 -0.08511954124671582 255 255 255
0.2921075704163168 -0.08975668039713897 -0.08501939357016006 255 255 255
0.16692753802034163 -0.07225485025013362 -0.08354688102004744 255 255 255
0.24045702207882128 -0.08724874312510038 -0.08441181998840401 255 255 255
0.19718548873612754 -0.08506539337392216 -0.08390281008730271 255 255 255
0.12643979291141602 -0.07924123492939553 -0.0830706172609036 255 255 255
0.27878991861383545 -0.07945688320422342 -0.08486273592243593 255 255 255
0.2703972075252772 -0.09164308268817241 -0.08476401113246082 255 255 255
0.26976926734479234 -0.0803409615285493 -0.08475662457264943 255 255 255
0.19393142431224808 -0.07735630105199368 -0.08386453201202726 255 255 255
0.15095932048620023 -0.07921502580751226 -0.08335904434776113 255 255 255
0.3031286518018239 -0.09449999779462814 -0.059322166855992745 255 255 255
0.2644178913556898 -0.09449999779462814 -0.018759315622810524 255 255 255
0.29149186127896964 -0.09449999779462814 -0.05718658258207887 255 255 255
0.29467171408893805 -0.09449999779462814 -0.06503988660787724 255 255 255
0.27236534370693677 -0.09449999779462814 -0.03027304617985889 255 255 255
0.2419057065251794 -0.09449999779462814 0.013076866756688385 255 255 255
0.28859657898645286 -0.09449999779462814 -0.04029406419264368 255 255 255
0.21565920477642953 -0.09449999779462814 0.05625319579844412 255 255 255
0.27546642493010387 -0.09449999779462814 -0.0338017792796823 255 255 255
0.2312507377509784 -0.09449999779462814 0.03152767461196994 255 255 255
0.2872557398264535 -0.09449999779462814 -0.049603277525956876 255 255 255
0.2710472653051071 -0.09449999779462814 -0.014374375827668262 255 255 255
0.20304120704190876 -0.09449999779462814 0.06785491615299485 255 255 255
0.20711126217676368 -0.09449999779462814 0.06333902559299487 255 255 255
0.2594920705493215 -0.09449999779462814 -0.01600508467855774 255 255 255
0.2792355121808928 -0.09449999779462814 -0.030625568410740017 255 255 255
0.1535770828414154 -0.08703151357702027 -0.0833898374325394 255 255 255
0.12530824356637596 -0.09134854594219101 -0.08305730659824517 255 255 255
0.1283570837775283 -0.08950505277761486 -0.08309317058859796 255 255 255
0.1486054271645925 -0.09044058757132892 -0.08333135505928196 255 255 255
0.1345278340114094 -0.09270386799077303 -0.08316575810107166 255 255 255
0.16667292813292664 -0.09436082324829849 -0.08354388593513992 255 255 255
0.22139706303936868 -0.09233140016607458 -0.0841876146025754 255 255 255
0.15104465981408788 -0.08711084873644036 -0.08336004813932259 255 255 255
0.17206154001866486 -0.0918104438094873 -0.08360727303033043 255 255 255
0.12622275548714695 -0.08686049680223717 -0.08306806414683171 255 255 255
0.299735221924329 -0.09449999779462814 0.09223226079709966 255 255 255
0.2947965161903189 -0.09449999779462814 0.09570662197535151 255 255 255
0.2346552549127671 -0.09449999779462814 0.10058053051762494 255 255 255
0.2813519440125479 -0.09449999779462814 0.10620669779444693 255 255 255
0.3015512061369328 -0.09449999779462814 0.11117045131425912 255 255 255
0.30295743751635645 -0.09449999779462814 0.10066430015600436 255 255 255
0.3379876882886949 -0.09449999779462814 0.10098995965387342 255 255 255
0.3369483676473525 -0.09449999779462814 0.10750494438137195 255 255 255
0.3250903774291309 -0.09449999779462814 0.11259629937918685 255 255 255
0.2597163907606942 -0.09449999779462814 0.10624348923431622 255 255 255
0.27380449119777606 -0.09449999779462814 0.09142881808856614 255 255 255
0.17596369305043344 -0.09449999779462814 0.11709694567165307 255 255 255
0.3217233408754683 -0.09449999779462814 0.08676122970830014 255 255 255
0.20659492865609402 -0.09449999779462814 0.10881857701271783 255 255 255
0.32156175125891767 -0.09449999779462814 0.07974034774536172 255 255 255
0.23935795302493312 -0.09449999779462814 0.10320723279386453 255 255 255
0.25343867639187334 -0.09449999779462814 0.10477619267744621 255 255 255
0.2926181793210253 -0.09449999779462814 0.10499293222307159 255 255 255
0.2696194276831682 -0.09449999779462814 0.1076678105922013 255 255 255
0.3178992148511487 -0.09449999779462814 0.11305180974716184 255 255 255
0.3020879553755429 -0.09449999779462814 0.09129363421018988 255 255 255
0.3168017547544243 -0.09449999779462814 0.10408975834352742 255 255 255
0.35719112833913186 -0.09449999779462814 0.06572377237942789 255 255 255
0.28544127366574623 -0.09449999779462814 0.10856848225896659 255 255 255
0.33508566367971715 -0.09449999779462814 0.09493730998318368 255 255 255
0.33892728005066924 -0.09449999779462814 0.09131591860669404 255 255 255
0.2529642667162892 -0.09449999779462814 0.09466172181633015 255 255 255
0.3437803618573472 -0.09449999779462814 0.08251891879735793 255 255 255
0.23419592940509282 -0.09449999779462814 0.11046833094734423 255 255 255
0.3356457667548596 -0.09449999779462814 0.09409982752709253 255 255 255
0.28213895730650174 -0.09449999779462814 0.1017027051834096 255 255 255
0.31399069992238815 -0.09449999779462814 0.11190273279312395 255 255 255
0.25372722089060706 -0.09449999779462814 0.10334173171391925 255 255 255
0.22626638753650125 -0.09449999779462814 0.10398082862872955 255 255 255
0.20842743815074205 -0.09449999779462814 0.1067589187637789 255 255 255
0.21842318016582682 -0.09449999779462814 0.11709613562909732 255 255 255
0.34794837300660864 -0.09449999779462814 0.07652907317558548 255 255 255
0.3550586011968673 -0.09449999779462814 0.07930861527459565 255 255 255
0.2082425032682195 -0.09449999779462814 0.11640428448325056 255 255 255
0.31564801499681994 -0.09449999779462814 0.11203862955103074 255 255 255
0.25902604998480266 -0.09449999779462814 0.11043302893539649 255 255 255
0.31331568600505344 -0.09449999779462814 0.11184172883540386 255 255 255
0.2663463662609979 -0.09449999779462814 0.1064231187577304 255 255 255
0.3611291546343099 -0.0930005451931953 0.10102534095440142 255 255 255
0.32573231221636983 -0.07157699763774872 0.06775085162311494 255 255 255
0.32632616915854623 -0.07157699763774872 0.05785117492977881 255 255 255
0.19675263917799032 -0.07157699763774872 0.10815133449925218 255 255 255
0.21023485091275876 -0.07157699763774872 0.10220441302964886 255 255 255
0.24701111287415115 -0.07157699763774872 0.08975706471151307 255 255 255
0.20880193456368476 -0.07157699763774872 0.10264818852539938 255 255 255
0.2540564675283136 -0.07157699763774872 0.08741060808225781 255 255 255
0.2800503154459777 -0.07157699763774872 0.08431192268084434 255 255 255
0.29685996077906507 -0.07157699763774872 0.06987164984476307 255 255 255
0.2444167147385828 -0.07157699763774872 0.09139625449012445 255 255 255
0.26487860793140056 -0.07157699763774872 0.08262986493673191 255 255 255
0.2608877269937357 -0.07157699763774872 0.08752630267629681 255 255 255
0.309049313036283 -0.07157699763774872 0.07274417043672335 255 255 255
0.28398803266324135 -0.07157699763774872 0.07845691779164671 255 255 255
0.27764202372282787 -0.07157699763774872 0.07930626165967686 255 255 255
0.29957062855753824 -0.07157699763774872 -0.03016761625663733 255 255 255
0.29464348115755296 -0.07157699763774872 -0.038025998986446374 255 255 255
0.31692899237407135 -0.07157699763774872 -0.06523220006280717 255 255 255
0.22033734463398294 -0.07157699763774872 0.05557403321682258 255 255 255
0.31501341687904033 -0.07157699763774872 -0.06582482389109251 255 255 255
0.29011336228420964 -0.07157699763774872 -0.019310361603970178 255 255 255
0.21300642978832912 -0.07157699763774872 0.06556358404275345 255 255 255
0.20966359823999722 -0.07157699763774872 0.07180917090080438 255 255 255
0.2876937143904364 -0.07157699763774872 -0.020914432425500708 255 255 255
0.29387151627922486 -0.07157699763774872 -0.03831379210602441 255 255 255
0.3167126649371021 -0.07157699763774872 -0.05020488469819575 255 255 255
0.23389408885845153 -0.07157699763774872 0.04232248747377944 255 255 255
0.1741029954676873 -0.07157699763774872 0.11066589432951074 255 255 255
0.2771212265881977 -0.07157699763774872 -0.01834820655329774 255 255 255
0.2280905418156581 -0.07157699763774872 0.05122650479760456 255 255 255
0.2582424278441124 -0.07157699763774872 0.010347581960812813 255 255 255
0.3095064825349418 -0.07642488296766554 -0.0798504294392883 255 255 255
0.3131143077736334 -0.07481743993512578 -0.07419996436987808 255 255 255
0.3009133267354513 -0.09449999779462814 -0.04935917486246726 255 255 255
0.30910385678170776 -0.09449999779462814 -0.0512784759498426 255 255 255
0.25704340641430107 -0.09449999779462814 0.006443142254908475 255 255 255
0.2233657849931508 -0.09449999779462814 0.04857232874876963 255 255 255
0.30837628630174546 -0.09449999779462814 -0.05920105839465721 255 255 255
0.20864842329962413 -0.09449999779462814 0.07300348425391173 255 255 255
0.2295823704910634 -0.09449999779462814 0.04894007603246221 255 255 255
0.26165823387824416 -0.09449999779462814 0.014171761616218817 255 255 255
0.2674655353195932 -0.09449999779462814 -0.004757411418027435 255 255 255
0.31143580793151054 -0.09449999779462814 -0.04689429228785317 255 255 255
0.30262057409493626 -0.09449999779462814 -0.043674694781360796 255 255 255
0.28616655769475896 -0.09449999779462814 -0.014676315783481345 255 255 255
0.22893089665986716 -0.09449999779462814 0.04739704929226596 255 255 255
0.30608981010373115 -0.09449999779462814 -0.057366293120493975 255 255 255
0.27566799689423765 -0.09449999779462814 -0.013449541767869645 255 255 255
0.21429698729490915 -0.09449999779462814 0.06262029531898056 255 255 255
0.31091097265383627 -0.08382926491237055 -0.07765076015596598 255 255 255
0.31336208636228235 -0.08177397459769858 -0.07381190115520408 255 255 255
0.256840042042879 -0.09449999779462814 0.09130917466059672 255 255 255
0.33854310698112383 -0.09449999779462814 0.06745364749699512 255 255 255
0.3423575907345918 -0.09449999779462814 0.06508712271518667 255 255 255
0.3487216829886115 -0.09449999779462814 0.05818138492960298 255 255 255
0.3084272656522893 -0.09449999779462814 0.0761505730959824 255 255 255
0.32098321807088454 -0.09449999779462814 0.07154257215364562 255 255 255
0.24617410127604833 -0.09449999779462814 0.08847128364716973 255 255 255
0.3203982251520614 -0.09449999779462814 0.07013748942247833 255 255 255
0.2930925692788767 -0.09449999779462814 0.07659960186743195 255 255 255
0.20600918725760692 -0.09449999779462814 0.10451291031175812 255 255 255
0.27101326981791884 -0.09449999779462814 0.08736628401051623 255 255 255
0.2602128000567618 -0.09449999779462814 0.08936274202402847 255 255 255
0.2906239426360908 -0.09449999779462814 0.08113035847305525 255 255 255
0.308477623060866 -0.09449999779462814 0.06662863466567129 255 255 255
0.36112309397964165 -0.07923785816638405 0.10117894714170908 255 255 255
0.3609216079206346 -0.08277124636109327 0.10628557456298146 255 255 255
0.3607898377145413 -0.07449878091634748 0.07814896753583955 255 255 255
0.35996772893606555 -0.0755780597115641 0.06659756903864603 255 255 255
0.3581910627835238 -0.08120971050132948 0.05098878780647135 255 255 255
0.358772928063458 -0.07375834809211934 0.0555690340012103 255 255 255
0.2973410808084094 -0.07157699763774872 0.05987473966282361 255 255 255
0.2644071253095789 -0.07157699763774872 0.07691906289503803 255 255 255
0.3433831881708958 -0.07157699763774872 0.03552228957353232 255 255 255
0.34096283321435117 -0.07157699763774872 0.03565870070081664 255 255 255
0.3420191357599696 -0.07157699763774872 0.043979441163150265 255 255 255
0.3191385242756412 -0.07157699763774872 0.050375696986494134 255 255 255
0.33923845793248436 -0.07157699763774872 0.04284952798785438 255 255 255
0.3372254600001939 -0.07157699763774872 0.03809195453251801 255 255 255
0.2294001125015797 -0.07157699763774872 0.08852068927322622 255 255 255
0.2931165540932277 -0.07157699763774872 0.06343158563919699 255 255 255
0.29995169452483583 -0.07157699763774872 0.05773619371742485 255 255 255
0.34963980572555803 -0.07157699763774872 0.03816809051737771 255 255 255
0.21866680595945906 -0.07157699763774872 0.09379558941250457 255 255 255
0.29427063881064924 -0.07157699763774872 0.06616354271167549 255 255 255
0.2526746436497274 -0.07157699763774872 0.030216135492357687 255 255 255
0.3251333247434808 -0.07157699763774872 -0.03616154753453507 255 255 255
0.32417765709277097 -0.07157699763774872 -0.05025824087242922 255 255 255
0.31888399427929814 -0.07157699763774872 -0.03617530960850965 255 255 255
0.2667652716759753 -0.07157699763774872 0.010079732627930993 255 255 255
0.27950159280569575 -0.07157699763774872 -0.0030447170074177216 255 255 255
0.19999905236565677 -0.07157699763774872 0.08378623619623285 255 255 255
0.3109430141162664 -0.07157699763774872 -0.03193178448123962 255 255 255
0.2949365547782573 -0.07157699763774872 -0.009516915782469992 255 255 255
0.2644456872055557 -0.07157699763774872 0.019811072756597964 255 255 255
0.26085283159804257 -0.07157699763774872 0.018436999394313605 255 255 255
0.23842812642255534 -0.07157699763774872 0.04955894600161892 255 255 255
0.20538757187053458 -0.07157699763774872 0.07731973592185032 255 255 255
0.1934372520933857 -0.07157699763774872 0.093391256631712 255 255 255
0.24595794953088213 -0.07157699763774872 0.03981043322220286 255 255 255
0.26216584578640445 -0.07157699763774872 0.023926324581000774 255 255 255
0.3165737741698762 -0.08636351386438355 -0.06858147493170406 255 255 255
0.3220564515909109 -0.07242776061446482 -0.058849995527629366 255 255 255
0.29850840613417956 -0.09449999779462814 -0.008977326921274068 255 255 255
0.2137528775524194 -0.09449999779462814 0.06763692862845823 255 255 255
0.22203429498059513 -0.09449999779462814 0.06620793264554466 255 255 255
0.3044122900104274 -0.09449999779462814 -0.01952182469767666 255 255 255
0.24726888709644346 -0.09449999779462814 0.04112591840376141 255 255 255
0.2584055218632845 -0.09449999779462814 0.02195134114364318 255 255 255
0.29305154021840163 -0.09449999779462814 -0.008797413680914745 255 255 255
0.2606236487339476 -0.09449999779462814 0.02619497178831927 255 255 255
0.22923089539622254 -0.09449999779462814 0.058669802518800024 255 255 255
0.32624977874689254 -0.09449999779462814 -0.03570215227151713 255 255 255
0.31536915438149904 -0.09449999779462814 -0.04162806681147023 255 255 255
0.29507138882444744 -0.09449999779462814 -0.008110550785078538 255 255 255
0.26868009688885697 -0.09449999779462814 0.008172660024219458 255 255 255
0.3091627359668528 -0.09449999779462814 -0.02644801265337501 255 255 255
0.22099612885601927 -0.09449999779462814 0.06313207470350783 255 255 255
0.26490225203285606 -0.09449999779462814 0.024217235580992605 255 255 255
0.31894555111773326 -0.08904164933504341 -0.06437168895549861 255 255 255
0.31857179453599127 -0.09211826484638568 -0.06503508827631314 255 255 255
0.3607337150841598 -0.08746864412665467 0.07736039200274546 255 255 255
0.3603054501236787 -0.09253671903546261 0.07134286810514871 255 255 255
0.22994656933766805 -0.09449999779462814 0.0936166194881446 255 255 255
0.26147491017998264 -0.09449999779462814 0.07511841228399602 255 255 255
0.17920908929857637 -0.09449999779462814 0.11289384934170661 255 255 255
0.27798670889782534 -0.09449999779462814 0.07486343196071976 255 255 255
0.31740699093664415 -0.09449999779462814 0.04779126514475478 255 255 255
0.1881715506174248 -0.09449999779462814 0.10973459784551229 255 255 255
0.2582885271891387 -0.09449999779462814 0.07516339363044117 255 255 255
0.3222412959769267 -0.09449999779462814 0.055272911535325854 255 255 255
0.2387398956886321 -0.09449999779462814 0.0899303346342456 255 255 255
0.26992692136974095 -0.09449999779462814 0.07331181719147555 255 255 255
0.30394910165237415 -0.09449999779462814 0.05703706500638321 255 255 255
0.33861892915662345 -0.09449999779462814 0.04627817755352931 255 255 255
0.34229722367501747 -0.09449999779462814 0.04155174185841521 255 255 255
0.29220344812245025 -0.09449999779462814 0.05827945232841085 255 255 255
0.3586358332436627 -0.0914375931227227 0.05448987006354279 255 255 255
0.3585876800434678 -0.09401136225147014 0.054110824398569915 255 255 255
0.3610169726754404 -0.09047375694881533 0.08413627255114761 255 255 255
0.36107034354317363 -0.08954243388030336 0.0875055848044228 255 255 255
0.3610334120669994 -0.08074186993435757 0.0851740942274405 255 255 255
0.35612731997005553 -0.08847884428874707 0.03801576276278081 255 255 255
0.3562501015078124 -0.0893708959801937 0.03868459749571595 255 255 255
0.35439385223802417 -0.07687984767239349 0.028572947101835635 255 255 255
0.35610982499990085 -0.07163880766231702 0.03792046143405556 255 255 255
0.23253119140090706 -0.07157699763774872 0.08501343724235645 255 255 255
0.29975571548075275 -0.07157699763774872 0.045274578559762246 255 255 255
0.3467993823312979 -0.07157699763774872 0.017339707782295696 255 255 255
0.33049079720058694 -0.07157699763774872 0.022836478414015052 255 255 255
0.31016583114065066 -0.07157699763774872 0.0350516980619968 255 255 255
0.24385115216782266 -0.07157699763774872 0.0764533727998424 255 255 255
0.3384617396130463 -0.07157699763774872 0.019570894378431222 255 255 255
0.33592836566624706 -0.07157699763774872 0.029592090762048558 255 255 255
0.3061121467116923 -0.07157699763774872 0.04108595584638143 255 255 255
0.28668065448603297 -0.07157699763774872 0.05911133250096028 255 255 255
0.312629527925381 -0.07157699763774872 0.04044760077961331 255 255 255
0.28286664694367114 -0.07157699763774872 0.05390735264351608 255 255 255
0.32304299367221295 -0.07157699763774872 0.027398907223081255 255 255 255
0.3261920798125842 -0.07157699763774872 0.030784574831761856 255 255 255
0.34228882377246533 -0.07157699763774872 0.021921840430222047 255 255 255
0.24314646985807475 -0.07157699763774872 0.05484625739698777 255 255 255
0.27183428097943796 -0.07157699763774872 0.03230853306962925 255 255 255
0.32417096639737575 -0.07157699763774872 -0.03131590335807269 255 255 255
0.32168539467721013 -0.07157699763774872 -0.028676039508694406 255 255 255
0.33626177894252374 -0.07157699763774872 -0.028819058347400422 255 255 255
0.3353669084513373 -0.07157699763774872 -0.0276577397607366 255 255 255
0.26940094000951514 -0.07157699763774872 0.029600256979836218 255 255 255
0.30723341966802364 -0.07157699763774872 -0.014066668442916028 255 255 255
0.30874313985380597 -0.07157699763774872 -0.007699269576170675 255 255 255
0.22475296456206204 -0.07157699763774872 0.06825137436838175 255 255 255
0.299798095569717 -0.07157699763774872 0.005280004073765179 255 255 255
0.3140741465598017 -0.07157699763774872 -0.01165507133640177 255 255 255
0.2671798499909333 -0.07157699763774872 0.023161318346218582 255 255 255
0.2874829451564666 -0.07157699763774872 0.014860597308420292 255 255 255
0.23242728383166356 -0.07157699763774872 0.05715193914498094 255 255 255
0.32484929782121424 -0.08015749825130031 -0.0537507949760209 255 255 255
0.32476306856169 -0.07375234473709627 -0.053925824887433776 255 255 255
0.3072232559389078 -0.09449999779462814 0.000698893368213091 255 255 255
0.3281431500786057 -0.09449999779462814 -0.026650400637496782 255 255 255
0.309224553610727 -0.09449999779462814 -0.009767904332088805 255 255 255
0.2647116306451365 -0.09449999779462814 0.029013660492745015 255 255 255
0.30319399557988697 -0.09449999779462814 0.0025157043409601426 255 255 255
0.22979302653705053 -0.09449999779462814 0.059328639754830215 255 255 255
0.3323213848335783 -0.09449999779462814 -0.030162515066802533 255 255 255
0.25110191161487194 -0.09449999779462814 0.04343954172509096 255 255 255
0.3014245519873422 -0.09449999779462814 0.006583534068356413 255 255 255
0.29574980294748626 -0.09449999779462814 0.01012544077929467 255 255 255
0.33149152648012487 -0.09449999779462814 -0.027597600846979528 255 255 255
0.3241513319966004 -0.09449999779462814 -0.011771252270796062 255 255 255
0.29745097696739226 -0.09449999779462814 -0.0020607523084907042 255 255 255
0.2582953006759398 -0.09449999779462814 0.034594603965392046 255 255 255
0.27908551912635576 -0.09449999779462814 0.016204018270176035 255 255 255
0.3285543001818925 -0.09219675357646462 -0.046230305544104 255 255 255
0.3317414069440116 -0.07480760394307519 -0.03976105117134312 255 255 255
0.3002652421162869 -0.09449999779462814 0.047820894164144714 255 255 255
0.3501706602496911 -0.09449999779462814 0.02456105519209711 255 255 255
0.27432176607422365 -0.09449999779462814 0.06398961269583324 255 255 255
0.23206496535694532 -0.09449999779462814 0.08564555294036506 255 255 255
0.3379976632002823 -0.09449999779462814 0.029379029890046475 255 255 255
0.30362169042679515 -0.09449999779462814 0.04715662642785527 255 255 255
0.2419709258806103 -0.09449999779462814 0.07556682865271473 255 255 255
0.291556930184124 -0.09449999779462814 0.052190089203135046 255 255 255
0.2536701252610716 -0.09449999779462814 0.07662968986965922 255 255 255
0.2870332079867419 -0.09449999779462814 0.05393087332571057 255 255 255
0.19181240306790515 -0.09449999779462814 0.10419720080850493 255 255 255
0.2985021421259218 -0.09449999779462814 0.051784886721408636 255 255 255
0.2339478268548077 -0.09449999779462814 0.08546798638505693 255 255 255
0.32787839772848676 -0.09449999779462814 0.02475123785425152 255 255 255
0.26229122382111025 -0.09449999779462814 0.06616626387706533 255 255 255
0.3522169586234351 -0.0858882460756965 0.019410098335927276 255 255 255
0.35196888076524313 -0.09405939899503155 0.018382073046674392 255 255 255
0.3511539854659488 -0.08716417864989244 0.015005173665793193 255 255 255
0.2860338640742156 -0.07157699763774872 0.04187550088845318 255 255 255
0.33087254071006394 -0.07157699763774872 0.013114216292761799 255 255 255
0.2899086735146398 -0.07157699763774872 0.04018411262775495 255 255 255
0.24088347815162225 -0.07157699763774872 0.07488012717934006 255 255 255
0.27401681139061645 -0.07157699763774872 0.052436174597558796 255 255 255
0.34418035294686133 -0.07157699763774872 0.0015142554857839469 255 255 255
0.25914260743385054 -0.07157699763774872 0.06300249996730739 255 255 255
0.22857344374773864 -0.07157699763774872 0.07784483611305452 255 255 255
0.3164973481159595 -0.07157699763774872 0.022012241573436415 255 255 255
0.31526275166420664 -0.07157699763774872 0.0196546945586468 255 255 255
0.30582746382513876 -0.07157699763774872 0.029093188501883582 255 255 255
0.30041093483225123 -0.07157699763774872 0.031205125854271605 255 255 255
0.314013973269239 -0.07157699763774872 0.031084536761708192 255 255 255
0.27122933959273077 -0.07157699763774872 0.04693153408526064 255 255 255
0.2336358634382742 -0.07157699763774872 0.07858980278449772 255 255 255
0.293749407883809 -0.07157699763774872 0.016209829329451544 255 255 255
0.33075057330722335 -0.07157699763774872 -0.0030962678746861566 255 255 255
0.3018263457729139 -0.07157699763774872 0.010849990771725562 255 255 255
0.3244013235970411 -0.07157699763774872 -0.010123525142610945 255 255 255
0.23556296630756277 -0.07157699763774872 0.06678132453508437 255 255 255
0.33916291613315397 -0.07157699763774872 -0.003545337941758972 255 255 255
0.34021311477848415 -0.07157699763774872 -0.015169500273451486 255 255 255
0.22674874286403518 -0.07157699763774872 0.0764500789420923 255 255 255
0.3163925577075688 -0.07157699763774872 -0.0016043575617028204 255 255 255
0.21618255102201422 -0.07157699763774872 0.08021397143637729 255 255 255
0.2647246616315426 -0.07157699763774872 0.04433006019865662 255 255 255
0.2588270018717316 -0.07157699763774872 0.04700780334070746 255 255 255
0.26081312444312715 -0.07157699763774872 0.048567196381602215 255 255 255
0.2745697892483945 -0.07157699763774872 0.04191168824197955 255 255 255
0.204447591026154 -0.07157699763774872 0.09177499905505054 255 255 255
0.340596316953669 -0.07157699763774872 -0.005420044610462985 255 255 255
0.3376888719325367 -0.07554502443073167 -0.025909875273755482 255 255 255
0.2788680947629548 -0.09449999779462814 0.03952692905801832 255 255 255
0.30309506553263316 -0.09449999779462814 0.013793370263234538 255 255 255
0.25963573061210515 -0.09449999779462814 0.047576968651441974 255 255 255
0.3116765562458886 -0.09449999779462814 0.0005895771976572838 255 255 255
0.3411568684929521 -0.09449999779462814 -0.012500922837377587 255 255 255
0.1911979805827888 -0.09449999779462814 0.10030132863924879 255 255 255
0.24212382632566803 -0.09449999779462814 0.06271468335444681 255 255 255
0.2920892703998329 -0.09449999779462814 0.023030147410165597 255 255 255
0.22194603780215544 -0.09449999779462814 0.0777691731034673 255 255 255
0.31807025657584215 -0.09449999779462814 0.00962575177100232 255 255 255
0.2586605609908011 -0.09449999779462814 0.04750015152248391 255 255 255
0.29658507702779385 -0.09449999779462814 0.017611364805416863 255 255 255
0.30748614914587435 -0.09449999779462814 0.010477488980568002 255 255 255
0.2350264732255582 -0.09449999779462814 0.06677376514168913 255 255 255
0.20677798517148444 -0.09449999779462814 0.08861289086926066 255 255 255
0.33284412442544253 -0.09449999779462814 -0.005243670554632152 255 255 255
0.3384526205047466 -0.07673903745951269 -0.02411629005982765 255 255 255
0.3022847982571915 -0.09449999779462814 0.02506988953039993 255 255 255
0.32917783495649533 -0.09449999779462814 0.010504323507209246 255 255 255
0.2391206190814235 -0.09449999779462814 0.07162209513217506 255 255 255
0.23504404900920745 -0.09449999779462814 0.07545088343555088 255 255 255
0.33767551099870124 -0.09449999779462814 0.01331252993509972 255 255 255
0.2788731009240122 -0.09449999779462814 0.05165869502039482 255 255 255
0.29257207037571953 -0.09449999779462814 0.04263139845738796 255 255 255
0.2619199240023767 -0.09449999779462814 0.05420190663919806 255 255 255
0.27668328946111226 -0.09449999779462814 0.04593282908974651 255 255 255
0.29266267866012596 -0.09449999779462814 0.03907626881020981 255 255 255
0.3395106004753608 -0.09449999779462814 0.013703764629341357 255 255 255
0.3232464188789176 -0.09449999779462814 0.011557521593350908 255 255 255
0.3355223313716543 -0.09449999779462814 0.0037500246208812763 255 255 255
0.21963517682936207 -0.09449999779462814 0.08445644649456154 255 255 255
0.26759492798715195 -0.09449999779462814 0.048894057937575675 255 255 255
0.34762158374543634 -0.09273808411261314 0.002425041347012588 255 255 255
0.34989711290875214 -0.0904369185168671 0.00999374949380421 255 255 255
0.34509359915613746 -0.07833371456597678 -0.005983364658423227 255 255 255
0.3452269869568116 -0.08156931480799465 -0.005539700342253671 255 255 255
0.34356001287623017 -0.07242720779164095 -0.010245849782602606 255 255 255
0.34066257157396623 -0.08776415225173492 -0.018250531515469744 255 255 255
0.3446826300080551 -0.08184003443774647 -0.0071444261778857605 255 255 255
0.0800867174979339 -0.029332999140024185 0.4101685408001125 255 255 255
0.09965518739439262 -0.029332999140024185 0.40275001277371775 255 255 255
0.07348897538861382 -0.029332999140024185 0.4062234352850904 255 255 255
0.06999331373916293 -0.029332999140024185 0.40969748528823735 255 255 255
0.08665085392377739 -0.029332999140024185 0.39983626750501405 255 255 255
0.09997801024160576 -0.029332999140024185 0.3884221441990063 255 255 255
0.09982034905487337 -0.029332999140024185 0.3824554136504474 255 255 255
0.08714552021322855 -0.029332999140024185 0.3972631198275956 255 255 255
0.08115290140235458 -0.029332999140024185 0.3844462467318229 255 255 255
0.0919669642925145 -0.029332999140024185 0.37246958342256303 255 255 255
0.09119158932548647 -0.029332999140024185 0.3767482051282289 255 255 255
0.07721102498383535 -0.029332999140024185 0.38914175076544877 255 255 255
0.07508734373928191 -0.029332999140024185 0.39021761561632984 255 255 255
0.07516641598558393 -0.029332999140024185 0.365867222178587 255 255 255
0.07301486327320778 -0.029332999140024185 0.36948319570068244 255 255 255
0.07772817585865399 -0.029332999140024185 0.3732444039451368 255 255 255
0.06407125261601603 -0.029332999140024185 0.3941628128233111 255 255 255
0.06749975983248419 -0.029332999140024185 0.3691540503067534 255 255 255
0.07192632001813157 -0.029332999140024185 0.3497401387097247 255 255 255
0.06199045053887159 -0.029332999140024185 0.3694830759873197 255 255 255
0.06405733715055031 -0.029332999140024185 0.3769793564256739 255 255 255
0.06023036519061244 -0.029332999140024185 0.3821347046352686 255 255 255
0.06636392489477037 -0.029332999140024185 0.3535104137860294 255 255 255
0.05229983695877686 -0.029332999140024185 0.35508345886178 255 255 255
0.03242985814074831 -0.029332999140024185 0.3917531693685039 255 255 255
0.024603484789605418 -0.029332999140024185 0.39561157597760455 255 255 255
0.02529882213909592 -0.029332999140024185 0.402168129368787 255 255 255
0.058163191406847496 -0.029332999140024185 0.3350506812898297 255 255 255
0.053272580731652704 -0.029332999140024185 0.3855571605408132 255 255 255
0.05976097939038031 -0.029332999140024185 0.39536311363567356 255 255 255
0.01591365751179428 -0.029332999140024185 0.4030802327716331 255 255 255
0.055692109116389055 -0.029332999140024185 0.3565862972082501 255 255 255
0.05077677710976003 -0.029332999140024185 0.3908769178758783 255 255 255
0.03675796748165243 -0.029332999140024185 0.3797677298668237 255 255 255
0.02284737637541887 -0.029332999140024185 0.3982014867561091 255 255 255
0.04675714588604362 -0.029332999140024185 0.4041563272983254 255 255 255
0.046399395696267776 -0.029332999140024185 0.394135608439529 255 255 255
0.053952056821148495 -0.029332999140024185 0.3430368289175212 255 255 255
0.059737322228582225 -0.029332999140024185 0.39788220703988025 255 255 255
0.042764003086721396 -0.029332999140024185 0.344344829465052 255 255 255
0.05431524672977049 -0.029332999140024185 0.3337522470277835 255 255 255
0.023089947158138596 -0.029332999140024185 0.3792700494501726 255 255 255
0.05512387142838018 -0.029332999140024185 0.33225587633847214 255 255 255
0.03419798893459851 -0.029332999140024185 0.3539648937773249 255 255 255
0.026994134731433417 -0.029332999140024185 0.3578541891031104 255 255 255
0.03915135207366046 -0.029332999140024185 0.3282786707136715 255 255 255
0.02759308858247874 -0.029332999140024185 0.358913624788947 255 255 255
0.02268619018235265 -0.029332999140024185 0.37700711763773176 255 255 255
0.019964636627182383 -0.029332999140024185 0.3470693755919176 255 255 255
0.023782209304409198 -0.029332999140024185 0.3203675666069024 255 255 255
0.018497339720584767 -0.029332999140024185 0.36978426490158905 255 255 255
0.024272731899585797 -0.029332999140024185 0.3243668250268237 255 255 255
0.018192925046154128 -0.029332999140024185 0.363189603618891 255 255 255
0.02238009589911945 -0.029332999140024185 0.3211684077807212 255 255 255
0.01306359954002335 -0.029332999140024185 0.3649761765418036 255 255 255
0.01401009983185961 -0.029332999140024185 0.34619752425417083 255 255 255
0.021343235193899513 -0.029332999140024185 0.321019677861459 255 255 255
0.018334873346817993 -0.029332999140024185 0.31433380559955365 255 255 255
0.014648640094902028 -0.03142600134015083 0.3219370428498435 255 255 255
0.012253446949423643 -0.03142600134015083 0.3124504820599964 255 255 255
-8.375032980401705e-05 -0.03142600134015083 0.31762069971520096 255 255 255
0.0059276515194093046 -0.03142600134015083 0.30472144766347037 255 255 255
0.01337628290140724 -0.03142600134015083 0.3018989331833071 255 255 255
0.0012307112936057324 -0.03142600134015083 0.3291343467338771 255 255 255
0.008050931499794065 -0.03142600134015083 0.3457451656727912 255 255 255
0.0009724756873234833 -0.03142600134015083 0.3320976019642561 255 255 255
-0.0022321415467289954 -0.03142600134015083 0.32440495998530994 255 255 255
-0.015490579248871006 -0.03142600134015083 0.31929402936608425 255 255 255
-0.016753636713785505 -0.03142600134015083 0.3233990929212137 255 255 255
-0.0052554268333602425 -0.03142600134015083 0.33390508991334344 255 255 255
-0.024320959780041555 -0.03142600134015083 0.3156473048686322 255 255 255
-0.027602013135098392 -0.03142600134015083 0.33061638067599913 255 255 255
-0.005358808875378825 -0.03142600134015083 0.34158429889423864 255 255 255
-0.04128328871157558 -0.03142600134015083 0.3268065089316714 255 255 255
-0.0195073957211771 -0.03142600134015083 0.3350919538969676 255 255 255
-0.052223926519560426 -0.03142600134015083 0.3282274292575812 255 255 255
-0.01741249389585659 -0.03142600134015083 0.34135745603916484 255 255 255
-0.04937903107795193 -0.03142600134015083 0.3308249561040521 255 255 255
-0.06795148863620035 -0.03142600134015083 0.34349625980751997 255 255 255
-0.05601211857425515 -0.03142600134015083 0.33748593087447404 255 255 255
-0.040313375358786804 -0.03142600134015083 0.3447316979603369 255 255 255
-0.04941761917342845 -0.03142600134015083 0.34636924484783704 255 255 255
-0.018135826510491636 -0.03142600134015083 0.35408551542632133 255 255 255
-0.028480175540313978 -0.03142600134015083 0.3507947069071359 255 255 255
-0.002239738098723923 -0.03142600134015083 0.353117506005736 255 255 255
-0.025597786730469238 -0.03142600134015083 0.3515580277921413 255 255 255
-0.014627737821366671 -0.03142600134015083 0.38208070138509487 255 255 255
-0.02280043390478191 -0.03142600134015083 0.37835242321621043 255 255 255
0.002076713591466675 -0.03142600134015083 0.3822320858423634 255 255 255
-0.004359786399131468 -0.03142600134015083 0.3620084286829538 255 255 255
-0.008027503057451077 -0.03142600134015083 0.39600601453527023 255 255 255
-0.023627201650391567 -0.03142600134015083 0.3649949964989927 255 255 255
-0.03070258146908765 -0.03142600134015083 0.37108122000894517 255 255 255
-0.022361361460603302 -0.03142600134015083 0.3721598056776058 255 255 255
-0.017403122740875958 -0.03142600134015083 0.36304844156458066 255 255 255
0.005913012233730058 -0.03142600134015083 0.38521966689513 255 255 255
-0.05920316824772966 -0.03142600134015083 0.3635980760596383 255 255 255
-0.03967227189431641 -0.03142600134015083 0.3590952962060378 255 255 255
-0.004356640468234648 -0.03142600134015083 0.3932434530879032 255 255 255
0.001859329131391291 -0.03142600134015083 0.356293049853746 255 255 255
-0.003015100820619277 -0.03142600134015083 0.3985378736755083 255 255 255
0.007941389850295518 -0.03142600134015083 0.3716345004627266 255 255 255
0.001741162535803104 -0.03142600134015083 0.3962718485065173 255 255 255
0.008982729819828682 -0.03142600134015083 0.3627099660655916 255 255 255
-0.057812700546029716 -0.03142600134015083 0.3684163243637189 255 255 255
-0.034086684777682244 -0.03142600134015083 0.3667106194879846 255 255 255
-0.012685478232607936 -0.03142600134015083 0.3955151610941678 255 255 255
-0.07905280370521733 -0.03142600134015083 0.35798583388467203 255 255 255
-0.05272476487814075 -0.03142600134015083 0.3734099324649668 255 255 255
-0.07468599681379208 -0.03142600134015083 0.37073074964511366 255 255 255
-0.07748006198434296 -0.03142600134015083 0.3620268760440192 255 255 255
-0.016730489419436084 -0.03142600134015083 0.39948080846612816 255 255 255
-0.05849461027008632 -0.03142600134015083 0.3757966932068706 255 255 255
-0.06601294487391843 -0.03142600134015083 0.38698646663277425 255 255 255
-0.04368304001453842 -0.03142600134015083 0.39393078018765393 255 255 255
-0.07741770292861509 -0.03142600134015083 0.38396863820733534 255 255 255
-0.09034800622173267 -0.03142600134015083 0.3787837027269886 255 255 255
-0.009654985025820989 -0.03142600134015083 0.4051336047900513 255 255 255
-0.027719837711226103 -0.03142600134015083 0.3960633227460176 255 255 255
-0.08288233919371404 -0.03142600134015083 0.39176940969529345 255 255 255
-0.06747779351619607 -0.03142600134015083 0.39324766960037605 255 255 255
-0.09193934550119716 -0.03142600134015083 0.3900032467386879 255 255 255
-0.08732670077185012 -0.03142600134015083 0.3835099470334324 255 255 255
-0.07399725338545828 -0.03142600134015083 0.39103925547312923 255 255 255
-0.07732286048555219 -0.03142600134015083 0.38906456400357403 255 255 255
-0.08585726896904301 -0.03142600134015083 0.40372577973083634 255 255 255
-0.09226989293247907 -0.03142600134015083 0.4001922644082117 255 255 255
-0.051993909224742056 -0.03142600134015083 0.40229907757132044 255 255 255
-0.022874451890162018 -0.03142600134015083 0.4080661220177186 255 255 255
-0.0275348020874282 -0.03142600134015083 0.4048512459397015 255 255 255
-0.04349801921054793 -0.03142600134015083 0.40285426873958535 255 255 255
-0.002298044053085308 0.04239470487187096 0.4002836586751862 255 255 255
-0.002269862447748695 0.043094457326740256 0.38711270984678503 255 255 255
-0.002331786970243537 0.04155471167190903 0.4006332146060894 255 255 255
-0.0020714114821424115 0.04803590657435878 0.4066502198476544 255 255 255
-0.0036868861929655458 0.007821844388074276 0.40085265097886663 255 255 255
-0.0035975047100700363 0.01004721644371763 0.396007880402093 255 255 255
-0.002490543304753012 0.037605999084074526 0.375021161299905 255 255 255
-0.0030460907922401255 0.023773920562120576 0.38799586758576604 255 255 255
-0.0034281198593962866 0.014265065438621646 0.3862696575940525 255 255 255
-0.0027323480102731832 0.03158709630140461 0.36261082206926903 255 255 255
-0.003130712879039867 0.021675296845634632 0.36229242168567466 255 255 255
-0.0029967151051946794 0.02500843243664856 0.363929588462836 255 255 255
-0.003345229005093733 0.016333461905182305 0.371634495245362 255 255 255
-0.0034241568502036274 0.014371848145923868 0.3627475873520959 255 255 255
-0.0033482553567931953 0.01626216030911251 0.3590679695875998 255 255 255
-0.0035277593341804976 0.011789337007158462 0.37625681079702744 255 255 255
-0.003707284002317766 0.0073207848127979855 0.3671003775179588 255 255 255
-0.0034425866984619993 0.013916053038092516 0.339046088889851 255 255 255
-0.003615180083502155 0.009615907566257883 0.3380999637818544 255 255 255
-0.003882746358208542 0.0029487270679813445 0.34281397801326957 255 255 255
-0.003852056217713982 0.003713448555607896 0.3354457420590515 255 255 255
-0.003961873774965865 0.0009771414433196691 0.3701986050045575 255 255 255
-0.00442962322203989 -0.010673567993185045 0.3682293557711217 255 255 255
-0.0047900125295235315 -0.01964896897863831 0.38777613927884363 255 255 255
-0.004739187999377665 -0.018383195647552756 0.38509764907860256 255 255 255
-0.004957473826450744 -0.023820441015203836 0.357365037740876 255 255 255
-0.004111154884345207 -0.0027417893996753645 0.3690268330799758 255 255 255
-0.0043835719275407544 -0.009526149690675723 0.3888724300274462 255 255 255
-0.00439052525250182 -0.009700324882718506 0.34479876624342853 255 255 255
-0.004869872673583269 -0.021638688436560423 0.35566233456741314 255 255 255
-0.005121637742838012 -0.02790892006374681 0.36539024066788606 255 255 255
-0.00435446476862569 -0.008801737111654023 0.36550449038996274 255 255 255
-0.004089547417003575 -0.0022037458296604584 0.3641570402162018 255 255 255
-0.0042417798814228524 -0.005995294981991334 0.36181015575794645 255 255 255
-0.004414302479920376 -0.010292711555674912 0.33636169268402544 255 255 255
-0.004201334820718999 -0.004988472348127049 0.3396619645940338 255 255 255
-0.0044046951760715325 -0.010053094753120204 0.35130195638452977 255 255 255
-0.004632558727562287 -0.01572767898851287 0.3768297599940923 255 255 255
-0.00411881007989819 -0.002932953914266026 0.3467548847250079 255 255 255
-0.004474049333525851 -0.011779002098796672 0.3329419732650643 255 255 255
-0.0047096933755596945 -0.017648337440162067 0.34367270625896107 255 255 255
-0.005346602808534358 -0.03351124094238075 0.3699955758531453 255 255 255
-0.00514462137442879 -0.028477389341916428 0.35286216736740567 255 255 255
-0.005666125939333455 -0.0414666292139032 0.36990135770431554 255 255 255
-0.0049557784759433465 -0.023770089732208385 0.3220985464880772 255 255 255
-0.004860972546900452 -0.021410090211956282 0.33303755199926344 255 255 255
-0.0050167381219048445 -0.02529048047273168 0.34238549045053956 255 255 255
-0.004989121475638548 -0.02459956899551343 0.31333427332781866 255 255 255
-0.005480274200897199 -0.03683369379630375 0.33091677193142544 255 255 255
-0.005209758191673904 -0.03009503114154776 0.31774304591809444 255 255 255
-0.00535623149335838 -0.033743997975646325 0.3272170246813358 255 255 255
-0.005683778758363131 -0.04190540186404361 0.3619515279142496 255 255 255
-0.005408560124936754 -0.03504791999485128 0.3333478593871333 255 255 255
-0.005615406325183229 -0.04019904315609358 0.3127590083253724 255 255 255
-0.005819288661908944 -0.04528076094081294 0.32969279742134044 255 255 255
-0.005818849021773072 -0.045269803017075075 0.32184101557722355 255 255 255
-0.005713084583376391 -0.04263365004657854 0.31373622477024066 255 255 255
-0.005938261433658701 -0.04824612841603203 0.3705655520511801 255 255 255
0.24156111808507744 0.07235021468381025 0.028369388898492904 255 255 255
0.24191553102222735 -0.09075712054279259 0.028378870933001798 255 255 255
0.24168157429822465 0.05648323555624295 0.03201629064265637 255 255 255
0.2417297697213186 -0.042749906968094935 0.03201531785166869 255 255 255
0.24113051677894737 0.05745857525959355 0.03191605172496485 255 255 255
0.2426060066930442 -0.06952118887526013 0.02859199739977661 255 255 255
0.24253019834294298 0.07187551091368558 0.03180943289447761 255 255 255
0.240444344562715 0.0062090607416044885 0.03151213405246698 255 255 255
0.24278190013782402 0.0377717687277173 0.028722513644473157 255 255 255
0.24006001891906573 -0.07117392618323595 0.02939768079085869 255 255 255
0.24008370189411576 -0.034224712416197775 0.03102904534740391 255 255 255
0.24281692897614582 -0.007577348761479391 0.03162066228664102 255 255 255
0.23991120671482394 0.050751982758809606 0.030515300630370647 255 255 255
0.24329730585979747 -0.013571910818891988 0.0292856302665916 255 255 255
0.2433093282653667 -0.008250870531102628 0.03105522428914408 255 255 255
0.24349342851508732 0.047976175046546 0.02986655008848709 255 255 255
0.2435349480018644 -0.07767917979508349 0.03018537449196413 255 255 255
0.2417328467028267 -0.025992795553312506 -0.04483204148356985 255 255 255
0.24272681966133647 -0.05787683060104406 -0.044899796471029325 255 255 255
0.24127288877487182 0.006687327340738916 -0.04458734445076341 255 255 255
0.243158878820251 -0.07363792334445346 -0.04474677118453264 255 255 255
0.24279818761174735 -0.0142029106198866 -0.04134249989310472 255 255 255
0.24119904046370347 -0.09161700308322906 -0.043896358382865125 255 255 255
0.24329880994195469 -0.05139970606156988 -0.044675096693947744 255 255 255
0.24309253758024463 -0.011924919463076791 -0.04145944554067538 255 255 255
0.24097036580351994 -0.08257850158059944 -0.041918164320621606 255 255 255
0.24379667888580772 0.04939112384127096 -0.04420780186490574 255 255 255
0.24063667567054406 -0.07095504331449695 -0.042483020901088596 255 255 255
0.24056197124711498 0.03126105599718246 -0.04352177767866795 255 255 255
0.2438422958609043 -0.07602553957459607 -0.042083868902568114 255 255 255
0.2405132380250718 0.030856970441662426 -0.04308362721588769 255 255 255
0.2440816226757651 0.07220113904958701 -0.0425636317744056 255 255 255
0.2441729301551442 0.035695827521698587 -0.04314667435713825 255 255 255
0.13169347446377375 0.0865792660859372 0.040540705379853395 255 255 255
0.12658209548771096 0.08168285597294221 0.04124439553442687 255 255 255
0.10923278440525602 0.06242279446912144 0.04707728714062585 255 255 255
0.04979875799178368 0.0030123868984489183 0.05499039649842794 255 255 255
0.13527055006937436 0.08999384374318577 0.04228148928564271 255 255 255
0.1097420588003382 0.0635418758311449 0.047098456516085366 255 255 255
0.13294161978800115 0.08567990773948378 0.04093536372453224 255 255 255
0.035572748040530275 -0.01298022687706582 0.05621074700601454 255 255 255
0.02384489220378766 -0.020626083375350997 0.05532493228843807 255 255 255
0.05000058187574406 0.0017616071560192653 0.052038207482620516 255 255 255
0.11132265253628652 0.06304612620417221 0.04567504416992345 255 255 255
0.03897591419182717 -0.006033565151542027 0.05605037804260952 255 255 255
0.022723389402133427 -0.026387743546667654 0.05679314372176232 255 255 255
0.10833591013892431 0.0650355076644438 0.04475429085394767 255 255 255
0.08885214049030492 0.04498989310329941 0.04894138141164205 255 255 255
0.04713488076822991 0.0033970365321876264 0.05342599409879929 255 255 255
0.029593746880744745 -0.014486512048314418 0.05635198934118818 255 255 255
